0.149767 -0.675827 -0.073343
-0.737422 0.629160 -0.006068
-0.306702 -0.462002 0.298693
-0.279690 0.473420 0.138455
0.687608 -0.253708 -0.253692
-0.516569 0.331414 -0.200834
0.389149 0.009292 -0.248097
-0.082614 -0.694146 -0.025049
0.704589 -0.357259 0.026826
0.642152 -0.633071 -0.264162
0.330323 0.201673 0.264921
-0.685822 -0.090524 0.006402
0.041624 -0.274025 0.095133
-0.735491 0.611501 0.013619
-0.173270 -0.701395 -0.003914
-0.193000 -0.293045 0.103079
-0.528130 0.088378 0.180802
-0.113663 -0.242973 0.102222
0.522043 -0.264401 0.077633
0.381449 0.013766 0.198389
-0.718216 0.296696 -0.135371
0.468298 0.360647 0.105850
-0.697016 0.089012 0.052264
-0.490740 0.417006 0.143954
-0.644889 0.491091 -0.189355
0.399989 0.312473 0.106375
-0.029850 -0.597617 0.084225
0.094773 0.684219 0.090033
0.465218 0.680292 0.119371
-0.583751 -0.568694 -0.236081
-0.075834 0.006453 -0.230888
-0.125938 -0.328978 -0.243088
0.143670 -0.576597 -0.263521
0.695663 -0.290839 -0.095753
-0.221010 -0.704348 -0.012198
-0.635834 0.451901 -0.191336
0.098407 0.181320 -0.230047
0.300117 0.448085 -0.226376
0.027150 0.668225 -0.206971
0.581094 0.728552 -0.145660
0.722076 -0.629955 -0.028662
-0.511356 -0.494396 0.259443
0.696010 -0.641798 0.015957
-0.259851 -0.074814 0.114723
-0.229945 -0.704798 -0.016037
0.312159 0.546637 -0.222691
-0.621307 -0.727720 -0.112772
0.564985 0.577086 -0.230836
0.316422 -0.308782 0.288731
-0.336320 -0.682323 0.092093
-0.721309 0.345676 -0.124023
0.611317 0.009880 0.085809
0.691258 -0.184395 -0.003478
0.320792 -0.544188 0.073398
-0.196389 0.550324 0.138576
0.537418 0.626340 -0.227743
0.694567 -0.236340 -0.014702
0.542506 0.080666 0.205620
-0.251502 -0.579318 -0.248908
0.532792 0.184503 0.137649
0.144910 -0.562726 0.079175
-0.246304 -0.362685 -0.240017
-0.525257 0.647945 -0.064132
-0.557668 0.646050 -0.072219
-0.707323 0.195987 -0.026508
-0.074188 -0.686473 -0.184199
-0.070068 -0.543567 -0.254170
-0.354959 -0.515459 -0.242375
0.632877 0.570406 -0.140923
-0.171172 0.227908 0.124114
-0.319430 -0.280701 0.108308
0.650103 0.385495 -0.021990
0.499369 -0.092405 -0.256470
0.168802 0.338159 0.321365
-0.349693 -0.349670 0.311840
0.640158 0.494901 -0.085156
0.141413 -0.228459 -0.248836
-0.390792 -0.059681 -0.221924
-0.511527 0.461667 -0.195559
-0.649002 0.255331 -0.199090
-0.657193 -0.529224 -0.068371
0.350917 0.562534 0.143741
-0.023617 0.529820 0.293204
0.712389 -0.450093 0.061812
-0.411757 -0.671431 -0.246799
-0.393987 0.095979 0.219711
-0.271128 -0.033817 -0.225299
0.668477 0.165409 0.057515
0.120203 -0.006589 -0.238740
-0.281796 -0.385743 -0.239661
0.127019 0.309331 -0.225744
-0.523184 -0.343012 0.228407
0.709404 -0.555411 -0.243656
-0.133853 0.267528 -0.217776
-0.481227 0.053581 0.333654
-0.437090 -0.361453 0.314602
-0.102542 -0.578529 0.087734
0.164186 0.140763 0.107961
-0.404979 -0.513148 -0.240414
-0.725752 0.533623 0.136183
-0.678638 -0.282125 -0.181412
-0.377013 -0.718237 0.055965
-0.308803 -0.708314 -0.060302
-0.256862 -0.137862 -0.230194
0.444769 -0.437351 -0.268902
-0.200439 0.363858 0.130906
-0.523614 -0.302590 0.299697
0.256912 -0.480243 0.078461
0.663985 -0.471397 -0.278499
-0.182413 0.301097 -0.214558
0.460768 -0.099195 0.086845
-0.519760 0.501825 0.148593
-0.159681 -0.054240 0.111852
-0.250194 -0.700807 -0.137312
0.429845 -0.394221 0.280920
-0.052840 -0.118185 -0.236972
-0.232909 0.661231 0.094281
-0.132869 0.024515 0.114156
-0.304292 -0.441180 -0.241148
-0.518483 -0.369888 0.309768
0.180208 -0.092568 -0.244582
-0.506289 -0.430788 -0.233184
-0.591393 -0.464364 -0.231421
-0.047316 -0.501948 0.088888
0.661249 0.088996 0.087266
0.206577 -0.326542 0.101993
-0.470151 -0.156863 -0.223042
0.274826 0.104360 0.102312
-0.648039 -0.668920 -0.091100
-0.470390 0.092785 0.172065
-0.580006 -0.049150 0.127730
-0.286936 0.669210 -0.169301
0.348351 0.123418 0.305667
0.643745 0.392097 -0.193740
-0.317692 -0.587238 0.285970
0.371129 -0.132233 0.088800
-0.319769 -0.701690 -0.226184
-0.009786 -0.139830 -0.239484
0.353729 -0.575358 -0.271297
0.014305 -0.679356 -0.205757
0.179644 0.545692 0.254359
-0.107163 0.323495 -0.216423
-0.571437 -0.599212 0.104341
-0.237488 0.529790 -0.202914
0.406858 -0.660377 -0.018624
-0.675119 -0.279523 -0.073375
-0.014006 0.174122 0.116001
-0.184783 -0.313565 0.101912
0.691837 -0.496939 0.061552
-0.499108 -0.386682 -0.231602
-0.379067 0.397308 0.138966
0.578100 0.291848 -0.243288
-0.220503 -0.588742 0.091702
-0.415934 0.009987 -0.218065
0.343560 0.593034 -0.221916
-0.505298 -0.584922 -0.239685
-0.358345 0.215184 -0.211605
-0.512133 0.416981 0.144750
-0.072128 0.679509 -0.064952
0.466939 0.625213 -0.225164
0.380324 0.009642 0.289230
0.508243 -0.179380 0.081713
0.639097 -0.571822 -0.281784
0.290000 0.693490 -0.215707
-0.513644 -0.480947 0.220608
0.361176 -0.652881 -0.258304
-0.555754 -0.458865 0.109643
-0.135349 -0.117348 -0.233862
-0.643001 -0.617346 -0.235913
-0.723158 0.390978 -0.083998
0.566836 -0.363602 0.071803
0.690473 -0.539327 -0.282335
-0.502775 0.103265 -0.210917
-0.129466 -0.417434 0.095494
-0.529841 -0.219589 0.290198
0.324287 0.555195 0.266949
-0.392179 0.662808 -0.189971
0.161051 0.698840 -0.134730
0.696793 -0.312332 -0.107391
-0.553287 0.080558 0.228816
0.615469 -0.036903 0.083692
0.393293 0.653268 -0.221243
0.339529 0.555084 0.293256
0.702532 -0.370896 -0.061438
0.544712 0.064904 0.237264
0.683472 -0.118469 -0.093865
0.479834 -0.147590 -0.258056
0.175987 0.074863 -0.237403
-0.479392 -0.215894 -0.225174
0.316481 0.556527 0.224838
-0.048216 -0.690406 -0.055295
0.023632 -0.688643 0.017361
-0.528789 0.548405 -0.191278
-0.321179 -0.275935 0.108573
0.148076 -0.263913 -0.250571
0.444345 0.357721 0.270424
0.569953 0.248204 -0.244815
-0.499826 -0.676514 -0.243731
0.381149 -0.479118 0.194862
-0.447333 0.340996 0.139149
0.377808 -0.038015 0.092502
-0.176377 0.052840 -0.225195
0.135961 0.690870 0.005052
0.308133 0.063994 -0.242783
-0.025471 -0.249653 -0.243506
-0.099177 0.674949 -0.004816
-0.323263 -0.308210 0.107297
0.122137 0.689769 0.008161
0.698948 -0.307929 0.069214
-0.700816 0.061288 -0.116068
0.547913 0.216982 0.096858
-0.630933 -0.666127 -0.238409
0.055636 0.355299 -0.221156
0.069981 0.397994 0.327557
0.558548 0.171699 0.094562
0.211963 -0.634445 0.073669
0.264083 0.681377 0.126912
-0.068051 -0.089877 0.307470
-0.097161 0.485129 0.337440
-0.286707 0.120405 -0.218250
0.505547 0.474629 0.314539
0.371654 -0.647765 -0.275002
-0.568850 -0.285078 -0.224741
-0.689554 0.149634 -0.202011
-0.433414 0.043134 -0.216023
-0.516629 0.087542 0.217546
-0.579023 0.647781 -0.144439
-0.632575 0.400043 -0.193632
0.363257 0.110224 -0.242899
-0.298029 -0.566943 0.095505
0.293002 0.413676 -0.227554
0.004922 -0.123843 0.308096
0.091516 -0.677079 -0.136244
-0.416269 -0.625504 -0.244705
-0.323152 -0.229845 0.300349
-0.375622 -0.114650 0.322663
0.115561 0.164488 -0.231392
0.489115 -0.037777 -0.253796
0.707012 -0.435322 -0.064375
-0.584920 -0.596073 0.104975
0.089607 0.334906 0.118883
-0.327300 -0.470717 0.305928
-0.441737 0.651952 -0.023610
-0.040944 -0.040277 -0.234148
-0.736541 0.627817 0.016840
0.202507 0.341684 0.252707
0.616806 0.249222 -0.246518
-0.605644 0.121946 -0.206300
0.189779 -0.334104 -0.255069
0.499223 0.549096 -0.229559
-0.300365 -0.621808 -0.248870
0.282858 0.091783 -0.240676
-0.285596 0.660097 0.037440
-0.395362 -0.040141 -0.220934
0.615834 -0.635114 -0.259412
0.441151 -0.659636 0.018322
0.495724 -0.643602 -0.256454
0.039141 0.117866 0.111661
-0.006176 -0.458364 0.089183
0.173347 -0.629443 -0.266843
0.092692 -0.680051 -0.067668
0.675386 0.010632 -0.061975
0.203558 0.698764 -0.066613
-0.714049 0.357267 0.111776
-0.611407 -0.696999 -0.240432
0.526094 0.293808 0.100893
-0.192545 -0.437621 -0.245163
-0.081978 -0.097287 -0.235010
0.257860 0.701834 -0.050706
0.254212 -0.445329 -0.262135
-0.312933 0.294691 -0.209963
-0.657316 -0.275270 -0.221033
0.420678 -0.485099 -0.270007
-0.383597 -0.636695 0.095769
0.662484 0.125811 -0.199421
0.027011 0.570356 -0.211070
0.434137 0.200628 -0.241749
0.483817 0.226946 0.189727
0.179603 -0.019391 -0.241491
0.464795 0.227516 0.147202
0.313849 0.236929 -0.235744
0.543333 0.024706 0.088964
0.537708 0.470238 -0.234301
-0.310271 -0.480859 0.155490
-0.513034 -0.505222 0.188038
-0.305371 -0.535439 0.185204
0.254827 -0.369446 0.204382
0.624976 0.340685 0.099174
0.674857 -0.304132 -0.271889
-0.531452 0.114684 -0.209369
-0.518557 0.641274 0.096149
0.493757 0.062658 -0.249757
0.218325 0.003121 0.100171
0.373907 0.473869 0.319413
0.560809 0.124047 -0.249681
0.120678 -0.592345 0.078836
-0.664113 -0.371524 0.056847
-0.106910 -0.054738 0.163816
0.625212 -0.640410 -0.125823
-0.048928 0.446855 0.334038
-0.675788 -0.288183 -0.110841
0.709216 -0.413706 0.044732
0.457466 -0.552658 -0.274211
-0.083375 0.678547 -0.060930
0.644891 -0.640550 -0.091932
0.530683 -0.444918 0.069740
0.508483 0.724338 -0.164478
0.310077 0.700042 0.071106
-0.628423 -0.000072 -0.210568
-0.633998 0.485320 0.152158
0.248021 0.501456 -0.222196
0.374017 0.351562 0.298846
-0.512470 0.641608 0.098142
0.527348 0.609959 0.114106
-0.490715 -0.098699 -0.219836
0.167522 -0.669976 -0.176994
-0.289733 -0.381373 -0.239182
-0.493031 0.248695 -0.205180
-0.168811 -0.702445 0.026640
-0.683464 -0.153629 -0.214957
-0.385011 -0.705633 -0.239569
-0.327851 0.056733 -0.219387
0.339689 0.336777 -0.232519
-0.340260 0.526294 -0.199231
-0.013359 0.061622 0.151187
0.403915 -0.646955 0.065990
0.485358 0.714207 0.026896
-0.158963 -0.643347 -0.255042
-0.340971 -0.000891 -0.221315
-0.483783 -0.391718 -0.232384
-0.062300 -0.616021 -0.257499
-0.422049 -0.125240 0.323949
-0.317736 0.501376 -0.201116
0.277451 -0.364959 0.287827
0.445912 -0.246724 0.081211
-0.072074 -0.013714 0.242023
-0.064663 0.280021 0.122330
-0.476640 0.270984 0.137304
0.570289 0.720433 0.019779
-0.373400 0.076355 -0.216867
0.468437 -0.056109 -0.253795
0.149491 -0.675050 -0.091222
-0.237702 -0.556322 -0.248458
0.186104 0.383609 -0.224831
0.444791 -0.245042 0.081323
0.496633 0.566838 -0.228719
-0.491982 -0.317972 0.318472
-0.092056 0.459391 0.336171
-0.350336 -0.052964 0.324307
0.633133 0.458052 0.103793
-0.731840 0.581366 0.057624
0.479292 -0.470958 0.070563
-0.288981 0.246719 0.129293
0.223145 0.571258 -0.218341
0.251766 0.269566 -0.232061
-0.486824 0.396212 -0.199225
-0.708393 0.257239 0.069302
-0.722018 0.412380 -0.006368
-0.010775 -0.137950 0.130135
-0.484985 0.544545 0.149089
0.340887 0.092288 -0.242817
-0.528595 0.466101 0.147424
0.083748 -0.679509 -0.093827
-0.101233 0.345559 -0.215719
0.590591 0.364207 -0.240719
-0.662471 -0.243364 -0.219503
-0.333456 0.132171 0.126147
0.088548 -0.256199 -0.248029
0.084372 0.535953 0.324195
0.437294 -0.153405 -0.256715
-0.484384 -0.253315 0.320900
0.618827 0.478667 0.105190
0.182629 0.696530 -0.049134
0.515858 -0.310147 -0.266216
0.147869 -0.005798 0.292345
0.094535 0.544930 0.138496
0.717418 -0.595308 -0.092657
-0.571619 -0.391367 -0.229096
-0.075799 0.319804 0.309217
0.540875 0.063904 0.090700
0.050942 -0.688451 0.055723
0.513742 0.714237 0.070565
-0.244746 -0.421815 -0.242555
0.331951 -0.436961 0.256854
-0.204133 0.195001 0.123962
-0.164317 0.057101 0.116695
0.676623 -0.549510 -0.282246
0.214667 -0.318505 -0.255342
0.665022 -0.632058 -0.251184
0.074846 -0.352728 -0.251567
-0.447875 0.345757 -0.202792
-0.653836 -0.583788 -0.083616
-0.494296 -0.072818 0.328840
-0.559506 0.586938 0.153644
0.443107 -0.459721 0.190195
0.082898 -0.193724 0.302259
0.261012 -0.670731 -0.013972
-0.230631 0.659847 0.128929
-0.366366 -0.666670 0.093869
0.654201 -0.297339 -0.270835
-0.634060 -0.464130 -0.229821
-0.087242 0.525997 0.279642
0.213177 -0.669423 -0.118078
0.672820 0.077755 0.002405
0.355597 -0.268555 0.288958
0.110606 -0.341426 -0.252426
-0.545542 0.339974 0.142766
0.491852 -0.570031 0.065940
0.266491 0.345611 0.264476
0.326356 0.349087 0.279948
-0.633114 -0.735486 0.100924
0.455734 -0.609045 -0.276511
0.076538 -0.681403 -0.062541
0.447945 -0.661000 0.059561
0.280694 -0.660713 -0.208173
-0.303252 -0.525839 0.266915
0.706431 -0.486815 -0.188125
0.118322 -0.249962 0.113147
0.557309 -0.647380 -0.075410
-0.644047 0.484098 -0.189680
-0.145434 0.005077 0.113809
-0.700870 0.033952 -0.174346
0.054809 -0.445346 0.087456
-0.565271 -0.190747 -0.220919
0.634583 -0.577496 -0.281853
0.295702 -0.670076 0.025502
0.401349 0.562966 0.212834
0.266600 -0.475465 -0.263861
0.643952 0.284926 -0.246032
0.242405 -0.671798 -0.019087
-0.713663 0.308768 0.022450
0.709991 -0.548263 -0.211724
-0.310676 -0.581346 0.164630
0.574176 0.110321 0.091406
0.323371 0.444774 0.320076
-0.441716 0.251907 -0.206958
-0.681289 -0.204764 -0.098289
0.286568 -0.669199 -0.008462
0.382770 0.575494 -0.224112
-0.223345 -0.700388 -0.104758
0.555675 -0.019152 0.086665
-0.079437 -0.088851 -0.234750
0.500630 -0.351530 -0.267384
-0.416947 -0.202517 0.320518
-0.647558 -0.725637 -0.200568
0.308034 0.458507 -0.226234
-0.437341 -0.227610 -0.227232
0.115825 -0.248043 0.139331
0.021983 -0.585658 -0.259366
0.239330 -0.334988 0.290504
0.661025 -0.364999 0.068234
0.080348 -0.218106 0.232426
-0.527631 -0.323371 0.139436
0.346728 -0.438210 -0.265284
0.648173 -0.090498 -0.261935
0.305967 0.418155 0.319608
-0.438785 0.057676 0.332244
0.586628 0.245606 0.096616
-0.111043 0.122138 -0.224724
-0.487588 0.601733 -0.190577
-0.225303 0.668078 -0.047570
-0.662735 -0.364577 0.111434
-0.533108 0.605126 0.153423
0.435129 -0.653597 -0.126684
0.478160 -0.413202 0.117764
-0.073555 0.527315 0.271413
-0.014873 -0.323047 0.095182
0.005753 0.330997 0.185281
0.368326 -0.279031 0.288044
-0.266206 0.226516 0.127597
-0.015923 0.388446 -0.217099
0.518931 0.019901 0.275416
0.640698 0.541440 0.027125
0.508963 -0.507629 -0.274242
0.296784 -0.659635 -0.207262
0.458496 -0.362975 -0.266294
0.629453 -0.463008 -0.276861
0.028373 0.540814 -0.212360
-0.357124 0.135869 0.127184
0.078722 0.157709 0.111857
-0.057661 0.386701 0.331840
-0.645008 -0.653756 0.028763
0.498211 -0.072292 -0.255583
-0.327457 -0.457194 0.306501
0.093861 0.153323 -0.231052
-0.430635 0.363845 -0.202676
0.512576 0.578471 0.113336
0.483556 0.601587 -0.226774
-0.545883 -0.001442 -0.213702
-0.042411 0.677593 0.024511
0.619812 -0.411682 -0.274349
-0.026273 -0.083972 -0.236527
0.473734 -0.333984 -0.265646
0.508067 -0.576578 0.065061
-0.106226 0.084802 -0.226469
-0.725818 0.542423 -0.184186
0.095616 -0.226548 -0.247049
0.661270 0.275431 0.075473
-0.012599 -0.238998 0.098622
-0.699207 0.526483 -0.185846
0.703840 -0.632491 -0.180809
0.372382 0.202403 0.308084
-0.266047 0.661680 0.032440
0.694858 -0.371979 0.066681
0.592154 -0.095239 0.082115
0.277774 -0.366984 -0.259727
-0.249385 -0.308226 -0.237618
0.632503 0.607286 -0.075346
0.198510 0.631092 -0.214914
0.594500 -0.340186 0.071754
0.350148 0.009172 0.252630
0.549708 -0.131070 -0.259967
0.223398 0.401873 -0.225455
-0.685851 0.230199 -0.198770
0.371308 0.632305 -0.221303
0.492918 0.363543 0.215566
-0.512749 0.089351 0.182988
-0.127629 -0.692271 -0.137486
-0.375964 -0.006553 0.327209
-0.059571 -0.255897 -0.242497
-0.668172 0.539405 -0.186461
-0.296651 0.244978 -0.212655
0.615146 0.067741 -0.254068
-0.541816 -0.139429 0.122520
0.113715 0.613408 0.129665
0.226183 -0.385272 -0.258572
-0.503462 -0.595574 0.182911
0.331496 0.113441 0.116136
0.454407 0.224682 0.194623
-0.145549 -0.482396 -0.248792
0.578097 0.568549 0.110478
0.627715 0.548764 0.107799
-0.586335 0.306008 0.142861
-0.653763 0.170361 0.139685
0.321678 0.417458 -0.228464
-0.271627 -0.137577 0.112529
0.379118 0.217085 0.247590
-0.282981 -0.135766 -0.229133
-0.050565 0.321948 0.300492
0.032121 -0.315034 -0.248394
0.463766 0.566566 0.229511
0.348775 -0.062885 0.092541
-0.455190 -0.369750 -0.232528
-0.250571 0.286842 0.129545
-0.003036 -0.253869 -0.244519
0.644153 0.408800 -0.147198
-0.607703 0.610438 -0.185735
0.435887 0.515106 -0.228625
0.099446 0.209882 0.113273
0.682373 -0.019153 0.081943
-0.499991 -0.572180 -0.239349
-0.614761 0.532574 -0.188738
-0.260391 0.630975 -0.197817
-0.407885 0.652373 0.019825
-0.272743 0.563624 -0.200182
0.625658 -0.633664 -0.276617
-0.380709 -0.259503 0.316777
-0.450342 -0.590183 0.144865
0.023323 0.684598 -0.030097
0.432159 -0.428456 -0.268059
0.413277 -0.490597 -0.269962
0.400898 -0.496929 0.262937
-0.720999 0.441101 0.082921
0.559048 -0.100063 0.083146
-0.061916 0.646458 -0.204564
-0.688936 0.010540 0.125177
0.053847 0.660336 -0.208296
-0.233727 0.604576 0.142243
-0.506025 -0.566389 0.265614
0.273941 0.708199 -0.168500
0.299301 0.190099 0.104995
0.273239 0.108396 -0.239621
0.649573 0.328634 -0.155369
-0.084461 0.363488 -0.215592
0.696080 -0.633405 -0.172407
0.298062 0.422458 0.320083
-0.049790 -0.693202 0.005030
-0.732066 0.527102 -0.061504
0.110097 -0.209570 0.300581
-0.101955 -0.040190 0.148449
-0.710509 0.573544 0.158709
-0.622942 0.174061 0.138692
-0.165075 0.066852 -0.225029
0.636002 -0.411149 0.067231
0.047922 0.335688 0.145817
-0.143805 0.668510 0.070045
-0.270536 0.442022 0.136797
0.376173 0.344397 0.108602
0.425140 -0.033360 0.090934
0.593520 0.604322 -0.230757
0.318022 0.396197 -0.229219
0.293945 -0.551535 -0.268070
-0.314984 -0.383461 0.220009
0.007663 -0.155174 0.255958
-0.727994 0.636363 -0.120787
0.627853 0.620666 -0.183243
-0.067359 0.000852 0.134373
-0.612563 0.421054 -0.193497
-0.079179 -0.498193 0.090233
-0.364546 -0.681805 -0.248994
0.547777 0.169495 -0.247289
0.658489 0.286708 0.017757
-0.598504 0.483126 0.150743
0.039977 -0.679151 -0.170252
0.576689 0.122568 0.091826
0.352664 -0.431027 -0.265204
0.056014 0.452634 -0.217088
0.153400 -0.574048 0.078384
-0.338464 -0.408206 -0.238491
-0.413961 0.093831 0.236726
-0.362049 0.629855 -0.194076
0.108837 -0.090858 0.305606
-0.035633 -0.223591 0.100127
-0.269604 -0.686108 0.089448
-0.184621 0.313945 -0.213937
0.219291 0.154616 -0.235672
-0.514502 -0.475416 0.207034
-0.208898 0.664460 0.059292
-0.096900 0.037417 -0.228804
-0.289707 -0.220750 0.109715
-0.315331 -0.352939 -0.237035
0.571011 -0.639285 -0.235764
-0.462776 0.533079 0.147780
0.515506 -0.369459 0.109190
-0.360722 0.609266 0.147172
0.201825 -0.266745 0.294764
-0.359461 -0.098514 -0.224720
-0.025455 0.013883 -0.232453
-0.550250 0.615904 -0.187647
-0.610220 -0.725323 -0.149268
0.183002 0.145861 0.107474
0.318360 0.156047 -0.239304
-0.653665 -0.539509 0.013212
0.016604 0.438214 0.331233
0.077302 0.201525 0.113748
-0.540951 -0.124915 0.162501
-0.266338 0.565169 -0.200355
-0.429236 -0.369479 0.313973
-0.004398 -0.280436 -0.245582
0.104712 0.688288 0.014200
0.462177 0.226812 0.158939
0.126512 0.254280 -0.228034
0.135274 -0.361070 0.087992
-0.252568 -0.708994 0.042836
-0.518502 -0.612108 0.101827
-0.360748 -0.348346 0.312307
-0.303360 -0.139821 -0.228543
0.682711 -0.107518 -0.093342
-0.632902 -0.260611 -0.221328
-0.175339 0.510570 0.150059
-0.265110 0.668428 -0.117626
-0.538257 -0.093394 0.306451
-0.701716 0.038692 -0.189197
0.353580 0.220675 0.127067
0.237939 0.512341 0.326093
0.023040 0.091062 0.298293
0.655376 0.361668 0.082421
0.114590 0.698057 -0.189728
-0.444545 0.140307 0.130628
0.611736 0.532624 0.107718
0.675260 -0.043992 -0.178928
0.394476 0.181521 0.306385
0.110194 -0.301157 0.091439
0.204471 0.654420 0.128003
0.183410 -0.660175 0.073653
-0.401273 -0.228689 0.318836
-0.719619 0.611638 -0.181514
-0.109800 0.494655 0.338311
0.240076 0.345034 0.236172
-0.072869 0.327833 -0.217519
0.554021 0.130349 0.092997
0.102759 0.689667 -0.019807
0.331994 0.309123 0.108769
0.510948 0.483708 0.121013
0.260527 0.019387 -0.242880
-0.393144 0.095804 0.224962
0.463375 0.226633 0.164826
0.145690 0.672822 -0.211195
-0.043879 -0.578193 0.085562
0.365392 0.102926 -0.243285
0.535345 0.376752 -0.238134
0.090234 -0.173271 -0.244614
0.700749 -0.358275 -0.087265
0.155457 0.688978 0.077981
0.183409 0.474249 0.326528
0.319507 0.705357 -0.033505
0.549039 -0.646498 -0.108126
0.201544 -0.489677 0.080128
0.463939 0.382951 0.312245
-0.328440 0.401316 0.137248
0.026147 0.607701 -0.209472
0.435683 -0.340365 0.282962
0.376582 -0.202647 0.095208
0.397536 0.208334 -0.240062
-0.012206 -0.575456 0.084497
-0.658355 0.515465 0.154330
-0.591126 -0.731942 0.029180
-0.377615 -0.019224 0.326739
0.562415 0.720717 0.001109
-0.077020 -0.000970 -0.231155
-0.567273 -0.049179 -0.214907
-0.437623 0.073513 0.332865
0.374834 -0.549234 -0.270988
0.403033 0.044174 -0.247151
0.505989 0.678735 0.117786
-0.517671 -0.446748 -0.233429
0.264017 0.513035 -0.222307
0.656033 -0.641274 -0.058278
-0.504288 0.132733 0.132536
-0.688660 0.633846 -0.002815
-0.655282 0.638224 -0.048976
0.361077 0.711229 -0.100412
-0.673093 0.400558 -0.192101
0.458922 -0.427697 -0.269025
0.142540 -0.425898 -0.257159
0.047408 0.541269 0.147082
0.115582 -0.220906 0.299901
0.203011 0.171667 -0.234350
-0.220988 0.417579 0.133925
-0.332038 0.390728 0.136938
-0.579393 -0.641181 0.102877
0.156519 0.687362 0.115947
0.648076 -0.170442 -0.265284
-0.380510 0.218657 0.131527
0.085078 0.695734 -0.183679
0.136692 0.514654 -0.217494
-0.562857 -0.725690 -0.067035
0.388817 -0.656920 -0.124425
0.621071 0.725294 -0.010031
0.678418 -0.001867 0.000532
0.171322 -0.196219 -0.248598
-0.401837 -0.497884 0.307567
0.493929 -0.139368 -0.258237
0.601390 0.725774 -0.051564
0.470738 0.133533 -0.245927
0.478980 -0.650084 -0.137069
0.538896 0.152583 0.249488
-0.049590 0.286821 -0.220107
0.489626 0.723489 -0.174870
-0.507992 -0.537929 0.267265
-0.319262 -0.340747 0.183808
0.588638 0.721874 0.016082
0.508343 -0.457540 0.070043
-0.038050 0.097861 0.113699
0.085751 -0.131560 -0.242698
0.209355 -0.419687 -0.259388
0.382864 0.717121 -0.198686
0.347437 0.643067 -0.219962
0.164884 0.637552 0.128771
-0.447524 -0.714639 -0.134996
-0.452304 0.656395 -0.139882
0.027877 0.683112 0.010395
-0.609005 -0.713494 0.100948
-0.048802 0.087689 0.113673
-0.646685 -0.715208 -0.239881
-0.590532 0.112244 -0.207270
-0.187208 -0.579248 -0.251302
-0.533735 -0.413419 -0.231433
-0.608247 0.274296 0.142348
0.338132 0.709869 -0.105719
0.101148 -0.577443 0.080189
-0.266220 -0.638057 -0.250823
-0.316493 -0.309188 -0.235157
0.427430 -0.473857 0.143987
0.668550 -0.578838 0.058985
0.102990 -0.591639 -0.262636
0.296832 0.047876 0.099122
0.405720 0.362055 0.112765
0.538930 0.081133 0.102283
0.548186 0.033483 0.273425
-0.642902 -0.666493 0.063772
0.349023 0.215234 0.242138
0.681561 -0.147978 -0.210798
-0.494352 -0.226616 0.322391
0.485988 -0.576738 0.065877
0.446404 -0.580965 -0.274986
-0.707687 0.230889 0.035241
0.379118 0.014951 0.168137
-0.113707 0.072900 -0.226689
0.078421 0.540460 0.213687
-0.008491 0.687593 -0.147057
-0.083582 -0.075024 0.108145
0.283772 0.699824 0.034910
-0.391874 -0.196617 -0.227627
0.277329 -0.471543 0.078065
0.379894 -0.046644 0.092063
0.633586 0.262758 -0.246576
0.337518 0.560910 0.159276
0.379049 0.342817 0.108428
0.524327 0.150224 -0.247224
-0.178107 0.281456 -0.215543
-0.692887 -0.022308 -0.058185
-0.312920 -0.433125 0.177202
-0.590504 -0.233512 -0.221772
0.668231 0.088196 -0.109807
0.255809 -0.532788 0.076298
-0.476856 -0.390695 0.314858
0.263901 -0.667181 -0.089176
-0.614162 -0.452889 -0.230091
-0.553126 0.607179 0.154255
0.655059 -0.493295 -0.279085
0.710156 -0.553034 -0.216818
-0.215846 0.457113 0.135392
-0.677898 0.288358 -0.196628
-0.527574 -0.265339 0.261455
-0.022868 0.186725 0.116860
0.714069 -0.514621 -0.023004
0.377852 0.437980 -0.229697
-0.643454 0.106706 -0.205530
0.096284 -0.683127 0.007018
0.553944 -0.486937 0.067111
-0.593263 0.197913 0.138586
-0.490676 -0.248804 0.321324
0.601094 -0.408874 -0.273533
0.027528 -0.171156 0.122237
0.028714 -0.533066 -0.257411
-0.524462 -0.634956 0.101091
-0.318146 -0.356779 0.105069
-0.361440 -0.713954 -0.015888
0.456750 -0.654605 -0.070288
0.193698 -0.616383 0.075107
0.326115 0.226640 -0.236632
0.060320 -0.394346 0.089390
0.320490 0.293643 0.108548
0.536132 -0.350674 0.167773
0.302767 -0.406641 -0.262322
-0.250991 0.049810 0.119619
0.530080 -0.641629 -0.247091
0.196765 0.693914 0.031685
-0.243100 0.065563 0.119986
-0.569825 -0.485114 -0.233095
0.504315 -0.615667 0.063561
0.606572 0.429730 0.103595
0.371396 -0.357891 -0.262835
-0.536237 -0.187856 0.169458
-0.337138 -0.120300 0.119612
0.529369 -0.492516 0.067792
-0.305707 -0.607436 -0.248068
-0.521450 -0.410665 0.138673
0.637475 0.174474 0.091737
0.533967 -0.652183 0.060925
-0.063502 0.260884 0.121485
-0.350608 0.161221 0.128004
0.378018 0.714953 -0.157564
-0.574216 -0.108105 -0.217119
0.107099 0.334016 0.275823
-0.616806 0.110026 0.135777
-0.292572 0.603459 0.144389
-0.633207 0.390495 -0.194009
0.223016 0.605066 0.125242
-0.142598 0.524479 -0.206673
-0.302315 0.332334 0.133381
-0.408635 -0.086099 -0.222367
-0.295730 -0.408748 0.102054
-0.349645 0.452323 0.140177
-0.135635 -0.035978 -0.230439
0.572529 -0.171626 0.079642
0.039344 -0.538978 0.084105
0.056975 0.378836 -0.220219
0.700953 -0.443762 -0.258600
-0.001311 0.177605 0.115674
-0.313846 -0.288054 0.107791
-0.093685 0.680516 -0.121254
-0.669182 -0.340810 -0.027298
-0.443584 -0.595214 0.268375
-0.633849 0.276786 0.143406
-0.180367 -0.102707 0.110591
-0.528951 -0.259947 0.232464
0.010039 0.537330 0.177148
-0.138157 -0.324036 -0.242426
-0.018456 -0.680977 -0.220531
-0.062561 0.003254 0.171187
0.021666 -0.026652 -0.235909
0.661953 -0.383824 -0.274751
-0.144210 0.634239 -0.202010
0.107512 0.694006 -0.109820
0.511894 0.726212 -0.201216
0.518060 -0.195670 -0.261497
0.696486 -0.240151 0.033362
-0.233901 -0.552868 0.093706
0.075307 -0.062875 -0.239428
-0.341306 0.344284 0.135335
-0.669231 0.158495 -0.202397
-0.316676 0.377165 -0.206364
-0.014668 -0.643562 -0.260429
0.502334 -0.625313 -0.278930
-0.680412 -0.207864 -0.079153
0.521460 0.257111 -0.242634
0.390214 -0.265331 -0.259654
-0.632017 0.209326 -0.201652
-0.301550 -0.566529 0.232162
-0.323180 -0.580837 0.133668
-0.472820 -0.018389 0.330322
-0.118794 -0.199002 0.104257
0.512999 0.485439 0.314715
0.527909 0.710883 0.118318
0.245361 0.553895 0.172834
-0.441176 -0.633172 0.098062
-0.701205 0.631513 0.029959
-0.062334 0.506432 -0.210421
-0.171203 -0.696693 -0.106279
-0.397866 0.060250 -0.216630
0.565389 -0.410236 0.069901
0.203571 0.287474 -0.229514
0.602349 0.645527 -0.229358
-0.192112 0.289661 0.127484
-0.197818 -0.406454 0.098502
0.121904 0.697741 -0.171215
-0.394535 -0.234482 0.318342
0.663187 -0.314207 0.070284
0.527585 0.146335 0.299949
0.095500 0.484451 -0.217225
0.496271 0.586949 0.114299
-0.376633 -0.665557 -0.247862
0.091339 0.588676 -0.212699
-0.236447 -0.028694 -0.226376
0.708365 -0.412658 0.022095
0.126726 0.286027 -0.226711
0.394424 0.321397 -0.235204
0.487869 -0.621292 0.063938
-0.124638 0.403935 -0.212398
0.452800 0.370887 -0.235304
0.402703 -0.497501 0.158746
0.445413 -0.449127 -0.269420
0.538854 0.079614 0.096914
0.702928 -0.589595 -0.284908
0.516517 0.362505 0.275752
-0.388300 0.584248 -0.195010
0.328920 0.167363 0.152821
-0.572825 -0.546624 -0.235563
-0.055029 -0.207223 0.101536
0.584799 0.317163 0.099685
0.351471 0.463291 0.319805
-0.176016 -0.496176 -0.248235
0.328349 0.664595 0.123813
-0.335615 -0.072801 0.262543
0.414163 -0.652069 -0.193770
-0.644261 -0.659860 0.037885
0.490910 -0.652550 -0.063063
-0.253511 -0.705552 -0.035936
0.622917 0.363758 0.100219
0.332172 0.141316 -0.240436
-0.132829 0.273457 0.124595
0.540457 0.100106 0.186162
-0.504638 0.267862 -0.203944
-0.457972 -0.020616 0.329675
-0.533232 -0.216159 0.198400
0.034865 0.203067 -0.226767
0.331588 0.133900 -0.240726
-0.715452 0.238432 -0.175603
0.105121 -0.185134 -0.245666
-0.706010 0.258705 0.141865
-0.250950 -0.393791 -0.241148
-0.732424 0.570150 0.017312
0.267476 -0.603600 0.072893
-0.258208 0.362486 -0.209159
0.342087 -0.239742 0.290670
-0.559286 -0.730987 0.057490
0.698462 -0.587337 0.057514
0.015285 0.329860 -0.220720
-0.539816 -0.129768 0.185537
-0.380464 -0.590254 0.255621
-0.513444 -0.121754 0.327501
-0.326516 0.081447 0.123761
0.072706 0.333797 0.227016
0.081792 0.538852 0.255076
-0.726370 0.392908 -0.173679
-0.544849 -0.020249 0.265879
0.041319 -0.671853 -0.263702
-0.448041 0.409913 0.142065
0.656378 0.251118 -0.117639
-0.160156 0.673212 -0.061092
0.598428 -0.490586 0.065300
-0.168428 0.669577 0.007609
-0.733855 0.537326 -0.092481
-0.536314 0.645543 -0.027466
-0.579413 -0.689298 -0.241301
-0.110098 0.394011 -0.213356
-0.515397 -0.476185 0.179335
0.179738 -0.471475 -0.260456
0.074108 -0.033060 0.309325
0.143558 -0.273366 0.267579
-0.137409 -0.313063 0.100167
0.228884 -0.347293 0.245065
0.459794 0.015800 0.275113
0.537984 -0.651444 -0.014354
-0.700618 0.129798 0.031772
-0.304163 0.096543 0.123561
0.230340 0.682837 -0.213930
0.301606 0.459278 0.321495
-0.323008 0.654573 0.103035
0.209948 0.037383 0.101920
0.351275 0.431138 -0.228993
0.621750 -0.644709 -0.034706
0.464672 0.562966 0.311780
-0.344393 0.658582 -0.020400
0.617586 -0.448395 0.066355
0.149229 0.441334 -0.221036
-0.342588 0.338244 0.135130
-0.174583 -0.220613 0.105430
-0.099552 -0.039109 0.168320
-0.005343 0.572900 0.132403
-0.552541 0.035638 0.157414
0.679514 -0.353163 0.068042
0.482413 0.001087 -0.251917
0.079764 0.662275 0.132980
-0.657728 -0.595200 -0.220795
0.358603 -0.125141 -0.252597
0.259574 -0.041152 0.096777
-0.337402 -0.206336 -0.230064
0.262156 -0.376369 0.262424
0.109478 -0.276790 -0.249673
-0.405683 0.655120 -0.038415
0.587368 0.488893 0.106792
-0.618265 0.578979 0.155500
0.160556 -0.364664 -0.255262
-0.000817 0.520231 0.335322
0.157048 0.477547 -0.219809
0.479707 0.711334 0.082581
-0.238802 0.478332 -0.205024
-0.642760 0.327432 -0.196298
-0.632774 0.260327 0.142676
-0.360865 0.115693 0.126477
0.045042 -0.688835 0.055134
-0.649360 -0.135389 -0.215463
-0.411820 0.096629 0.177243
0.690310 -0.516185 -0.281359
0.588254 0.499789 -0.234945
0.701292 -0.359963 -0.074928
0.633277 0.557971 -0.155046
-0.149817 0.337350 -0.214253
0.127591 0.544937 0.189981
-0.548100 -0.179132 -0.221071
-0.115801 0.529949 0.146268
0.171051 0.086670 -0.236724
0.238685 -0.669758 -0.070706
0.344095 0.557894 0.237283
-0.445837 0.645855 0.106885
-0.481717 0.093323 -0.212118
-0.494508 0.194460 0.134761
-0.436577 -0.058236 -0.220157
-0.326191 0.287901 -0.209754
0.626667 0.362994 0.100047
-0.565604 0.381504 0.145255
-0.026035 0.605087 -0.207637
0.008411 0.333207 0.139795
-0.029862 -0.426428 -0.250756
0.421559 -0.590366 -0.274455
-0.312857 -0.442008 0.160616
-0.726874 0.438812 -0.093188
0.014622 0.369122 -0.219048
0.304813 -0.091165 0.092994
0.170147 -0.448590 -0.259139
0.337255 0.530353 -0.224310
-0.123215 -0.687349 -0.241127
-0.257757 0.665555 -0.041639
0.274971 -0.427073 -0.262143
-0.729834 0.595395 0.145223
-0.622633 0.259590 0.142267
0.261968 0.551153 0.260342
0.055567 -0.222150 -0.245372
0.294158 0.430686 -0.226883
0.036287 0.340921 -0.221038
0.582457 0.241466 0.096597
-0.630305 -0.724650 -0.195770
-0.555656 -0.067294 -0.216099
0.004999 -0.054950 -0.236475
0.080657 0.657290 -0.209423
0.614712 0.542221 0.108009
-0.149807 0.619143 0.139726
0.653174 0.332819 -0.041652
0.387565 0.124651 -0.243200
0.058455 -0.481217 -0.256345
0.287773 0.292009 -0.232462
-0.439576 -0.547573 -0.240568
0.478000 0.365998 0.137137
-0.067117 -0.012401 0.293832
0.118747 0.416568 0.326519
-0.382878 0.108106 -0.215182
0.045026 -0.383750 -0.251757
-0.281731 0.668185 -0.138136
0.214473 0.113839 -0.237203
-0.503094 0.593061 0.151798
0.656492 0.227345 -0.163609
-0.029127 -0.688971 -0.057694
-0.011553 0.286392 0.120618
0.006897 0.430151 -0.216201
0.536971 0.559786 0.111643
0.537354 0.246418 -0.243675
-0.452427 -0.686239 0.096256
0.524439 0.429745 -0.235505
0.663706 0.234446 0.061537
-0.487221 -0.368955 -0.231301
-0.024421 0.045311 -0.231174
-0.322026 0.095048 -0.217997
-0.587152 -0.029597 -0.213344
-0.118290 -0.157984 -0.236202
0.314850 -0.007622 0.096123
-0.600974 -0.291133 -0.223798
-0.159736 -0.043495 -0.229856
-0.037699 -0.529480 -0.254786
-0.007233 -0.190909 0.100439
-0.723175 0.480515 0.101201
-0.226032 0.294776 -0.213198
0.444372 0.537920 0.319473
-0.432592 0.093172 0.222412
-0.000872 0.236990 -0.224012
-0.604978 0.516886 0.152400
0.685286 -0.641372 -0.010378
-0.443937 0.646910 0.086166
-0.021190 -0.090488 0.310468
-0.063637 0.570005 -0.207707
-0.230345 -0.705528 -0.000273
0.048682 0.332990 0.207596
-0.323812 -0.234061 0.272352
-0.527760 -0.703454 0.098341
0.503749 0.723784 -0.159440
-0.347874 0.573887 -0.196951
-0.265764 -0.432049 -0.242200
-0.253951 -0.190062 0.109669
0.386893 0.413082 -0.231078
0.413722 -0.495478 0.212722
0.061388 -0.201444 0.212767
-0.580680 0.488745 -0.191846
0.280530 0.541558 -0.221726
0.071644 0.671203 -0.208504
-0.224847 0.365275 0.131875
0.165753 -0.322099 0.088490
0.615131 0.615905 -0.231077
-0.082722 -0.082232 -0.234350
0.478901 0.432414 0.313761
-0.519110 -0.413831 0.200356
0.573408 0.368100 -0.239915
0.142172 0.692303 -0.017436
0.448401 0.266358 0.102637
0.259775 0.590696 0.123269
0.560392 -0.193297 0.079186
-0.096817 0.166077 0.118750
0.116969 0.470343 0.328840
0.121204 -0.090247 -0.242286
0.453274 0.524546 -0.228877
-0.016670 -0.209302 0.100020
0.426900 -0.437250 0.279225
0.009305 -0.216107 0.098766
-0.166372 0.381344 0.143590
-0.580326 -0.468936 -0.232025
-0.266341 -0.486898 0.097681
0.301103 0.152204 0.103339
0.307601 -0.190706 -0.253446
-0.581417 -0.720263 -0.217911
0.692233 -0.217691 -0.044090
-0.516377 -0.436511 0.233035
0.505099 -0.381048 0.104507
0.161485 0.334513 -0.225973
-0.152097 0.190982 -0.220306
-0.387234 0.645962 -0.192462
0.281564 0.346083 0.277426
-0.684608 -0.208285 -0.202398
0.544015 0.045089 0.295090
-0.533893 -0.220547 0.170016
-0.618941 0.379416 0.147155
0.064198 -0.245990 -0.246694
-0.368535 -0.219547 -0.229458
-0.668736 -0.432277 -0.204006
0.683890 -0.129216 -0.103953
-0.306474 -0.533746 0.156556
0.057650 0.225762 0.115497
-0.647750 0.113378 0.137071
-0.272354 -0.702397 -0.136220
0.655548 -0.632782 -0.249719
0.270955 0.191385 0.106106
-0.700013 0.569573 -0.184009
0.014618 0.655329 0.135116
-0.359758 -0.288824 0.314767
-0.457234 0.411544 0.142476
0.599442 -0.205095 -0.264925
0.362203 -0.461604 0.084853
0.706225 -0.617162 -0.286187
0.462469 0.504288 -0.230069
0.046530 0.329169 0.290029
-0.215638 -0.683452 0.087548
0.524799 -0.519685 -0.275338
-0.463386 0.204944 0.134041
0.260961 -0.007851 -0.244039
-0.674021 0.516385 0.154952
0.418983 -0.241659 -0.259734
0.375862 -0.567632 0.070363
-0.593020 0.169472 0.137384
-0.460281 0.643271 0.142337
-0.230701 0.652678 -0.198013
0.253633 0.696190 0.069421
0.288385 -0.617645 -0.270636
-0.568297 0.406464 0.146402
0.114971 0.338046 0.197619
0.233768 -0.081005 -0.246093
0.027632 -0.682863 -0.106173
0.695333 -0.259460 -0.040295
0.246490 0.443223 -0.224581
-0.251533 0.639209 -0.197802
0.422614 0.720710 -0.217172
0.006491 0.016238 -0.233545
-0.211936 -0.400135 -0.242868
0.419234 0.430943 0.315923
-0.348367 0.320660 -0.207553
0.366304 0.469096 0.319496
-0.165422 0.046524 0.116292
-0.558871 0.252288 -0.202576
-0.317920 0.657568 0.043717
0.021172 0.515284 -0.213162
-0.539995 0.088503 0.159470
-0.044838 0.018292 0.234526
0.714018 -0.533010 -0.062632
0.251098 0.692768 0.127874
0.689275 -0.147313 0.015575
-0.629127 0.114477 -0.205738
-0.364719 0.458611 -0.201158
0.303593 0.106292 -0.240840
0.013551 -0.115846 -0.239348
0.474817 0.718942 -0.095902
-0.033115 -0.583067 0.084957
-0.040035 -0.483433 0.089393
-0.360846 0.506521 0.142868
-0.318206 0.655613 0.087170
-0.317663 0.238095 -0.212160
-0.661147 -0.143369 -0.215359
0.184751 -0.012803 -0.241406
0.569785 -0.644274 -0.125662
0.435974 0.567258 0.170572
0.371514 -0.421961 0.281931
-0.137088 0.252128 -0.218301
0.442733 0.680527 -0.221942
-0.463189 0.075870 0.333916
0.384826 -0.652165 -0.237440
-0.442801 -0.347278 0.315410
0.390528 -0.419288 -0.266123
-0.023822 0.681428 -0.032579
-0.367157 -0.588636 0.240088
0.155822 -0.464115 -0.259256
0.083924 0.607027 -0.211653
0.518008 -0.287961 0.076795
-0.318550 -0.362860 -0.237331
-0.563021 -0.536564 0.106655
0.148125 0.038103 -0.237906
0.544227 0.504223 -0.233119
-0.668159 -0.319623 0.046460
0.026576 0.679364 0.092520
-0.214116 0.471625 -0.206225
-0.293735 0.664227 -0.068012
0.411730 0.397777 0.314812
-0.624478 0.638354 -0.003777
0.674819 0.088443 0.082862
-0.082336 0.670772 0.115297
0.628449 0.370276 0.100286
-0.633181 0.585629 -0.185826
-0.025482 0.435008 -0.214790
0.037633 0.071417 -0.232392
-0.314538 -0.317135 -0.235563
0.459343 -0.572560 0.067045
-0.473964 -0.535323 -0.238773
-0.554833 0.554798 0.152122
0.596702 0.701575 -0.226797
-0.613495 -0.733324 0.025261
-0.223975 -0.520666 -0.247474
0.663942 0.094389 -0.222046
0.209976 -0.677270 0.053131
-0.151724 -0.674565 -0.256621
0.431304 0.054911 -0.247755
-0.022410 -0.013667 -0.233722
0.580754 -0.037558 -0.257202
-0.396436 0.662235 -0.183735
-0.034771 0.565238 -0.208982
-0.004511 -0.268072 -0.245059
-0.075703 -0.364101 0.095727
-0.247452 -0.383910 -0.240864
0.047581 0.683144 0.040455
-0.443094 0.593407 0.149577
-0.342739 -0.005010 -0.221422
-0.186581 0.554942 -0.203757
-0.362001 -0.535044 -0.242934
-0.417298 -0.591081 0.216634
-0.715263 0.390002 0.144272
-0.720598 0.412131 0.034548
0.157590 0.419938 0.325212
-0.520395 -0.361234 0.271968
0.127003 0.360271 -0.223607
-0.663679 -0.450979 -0.228165
-0.038320 -0.355482 0.094696
-0.415338 -0.414947 0.311548
0.655014 -0.530661 0.061510
-0.530033 -0.716521 -0.221658
-0.174118 0.299884 0.127242
-0.269045 0.652907 -0.196575
-0.096865 -0.440994 0.093291
-0.240073 -0.117865 -0.229981
-0.511625 -0.514663 0.209561
-0.584923 -0.144694 -0.218255
-0.060705 0.005592 0.168834
0.136976 -0.644314 -0.266112
0.211954 -0.447868 -0.260667
-0.524428 -0.368258 0.139751
-0.510250 -0.694189 -0.244083
-0.309411 -0.014246 -0.223051
-0.182664 -0.366686 0.099605
-0.511363 -0.482256 0.284424
0.301959 -0.639244 0.070113
-0.372455 -0.587626 0.209130
-0.215818 -0.306961 0.103345
0.158476 0.572501 0.126281
-0.244155 0.303019 0.129984
-0.533556 0.083199 0.288625
-0.284010 0.520479 -0.201571
0.385937 -0.160429 -0.255095
0.297708 -0.550979 -0.268187
0.459110 -0.437592 0.146626
-0.663799 -0.453708 -0.228275
0.420095 -0.225882 -0.259113
-0.058354 0.067103 -0.228995
0.257938 0.697397 0.049061
0.541034 -0.645217 -0.149407
-0.263678 -0.704751 -0.069794
0.136521 -0.523344 0.081140
0.264804 0.629738 0.124720
0.691419 -0.260655 -0.156949
-0.353444 -0.715549 0.032418
-0.358867 0.291475 -0.208386
-0.468204 0.162913 -0.209703
0.298433 -0.406274 0.093258
-0.160937 0.310637 -0.214959
-0.444513 -0.019516 -0.218237
0.303935 -0.612396 0.071166
-0.198071 0.575793 -0.202454
0.229489 0.099078 0.103780
0.025753 -0.407673 0.090119
-0.005957 -0.639692 0.081570
0.643553 0.458161 -0.062317
-0.475004 -0.333806 -0.230282
-0.225078 0.498085 -0.204707
0.412957 -0.395347 -0.265955
0.411481 -0.661075 0.004287
0.692334 -0.290598 0.070188
-0.318943 -0.358095 0.157130
-0.463044 0.084654 -0.213178
-0.206570 0.670369 -0.069768
-0.606890 -0.150567 0.124478
-0.344757 0.272922 -0.209690
-0.073960 -0.454987 0.091850
0.667159 0.150263 -0.012345
0.658480 0.301142 0.047417
0.517932 0.473063 -0.233446
-0.055734 -0.243830 0.100027
-0.658866 -0.472443 0.000588
-0.728535 0.582927 0.157263
0.584379 0.204995 -0.247165
0.210263 -0.571346 -0.265783
0.494111 -0.019289 0.088954
-0.431718 0.064643 0.332273
-0.391207 0.061981 -0.216806
-0.311504 -0.704324 -0.154121
0.137654 -0.671419 -0.191265
-0.717730 0.285753 -0.143900
0.339288 0.147598 -0.240438
-0.234733 0.668035 -0.061355
0.257166 0.349879 0.154083
-0.686710 0.313508 -0.195244
0.505640 0.353679 0.104166
0.171538 -0.371699 -0.255966
-0.736593 0.587816 -0.067640
-0.183010 -0.081273 0.111588
0.244344 -0.531205 -0.265369
-0.336140 -0.484522 0.305679
-0.519549 -0.417858 0.179197
0.276667 0.382088 -0.228270
0.414728 0.149463 0.304286
-0.387062 -0.084462 0.324355
-0.354215 0.308232 0.134304
0.099052 0.247073 0.114847
0.514905 -0.027915 -0.254344
-0.127520 -0.199470 0.104563
-0.232675 0.112275 -0.220604
0.028223 0.176933 0.114545
0.622781 0.062671 0.087596
-0.103529 0.671777 0.059616
0.021621 -0.207698 0.098660
0.126400 -0.282753 0.091607
0.646427 0.496570 0.101157
-0.315560 -0.347925 0.276904
0.285809 -0.516886 0.075847
-0.698507 0.086069 0.002665
-0.089408 0.310034 0.124511
-0.650694 -0.684765 -0.201399
0.557360 0.387008 0.103637
-0.053209 -0.072951 0.312396
0.386928 0.354599 0.250828
0.200368 0.243336 0.110915
-0.138816 0.671726 0.005638
0.387679 -0.007908 0.093397
-0.091179 -0.565627 -0.254309
-0.465768 -0.625097 0.099317
-0.525039 -0.289356 0.285574
-0.259233 0.137429 0.123601
0.267867 0.600992 -0.218761
-0.539856 -0.243513 -0.224079
-0.476903 -0.712484 -0.229282
0.466090 0.552151 0.319261
-0.551292 -0.625067 -0.239655
-0.251901 0.111974 0.122260
0.082357 -0.139747 0.304543
0.584837 0.273922 0.097870
-0.484285 0.035014 0.332989
-0.499921 0.257553 -0.204552
0.604480 0.229054 -0.246905
-0.429342 -0.310800 0.316438
-0.339348 0.665665 -0.171575
-0.702586 0.088753 -0.110760
-0.675324 0.630855 0.085168
-0.323149 -0.252012 0.254453
0.265556 0.190900 0.106286
-0.285094 0.657643 0.093324
0.285119 0.337361 0.111700
-0.465459 -0.594458 0.217224
0.616026 0.089030 0.088953
-0.626989 -0.568312 0.107707
0.286178 -0.230424 -0.254313
-0.174838 0.511517 0.166629
-0.675713 0.163953 0.140234
0.471038 0.063977 0.298602
0.323446 0.366840 0.316805
0.393308 -0.337635 -0.262802
0.313867 0.688233 -0.216816
0.519807 0.374823 0.153604
0.065631 -0.586824 -0.261042
-0.513678 0.645032 0.019385
-0.147084 0.113423 -0.223746
0.603407 -0.432426 -0.274607
0.421847 -0.655014 -0.115615
-0.596817 0.562673 -0.188144
0.202454 -0.674140 -0.028911
0.430183 0.088748 0.301164
0.334990 0.146538 0.286680
-0.109606 0.654335 -0.202457
-0.314680 0.658335 0.031570
0.492814 -0.089687 -0.256111
0.206510 0.514066 0.327337
0.033581 0.200142 0.115319
0.114395 0.618989 -0.212287
0.500969 -0.427753 -0.270594
0.363835 0.704555 0.053755
-0.309318 0.028132 0.120884
-0.511248 -0.554250 0.138455
0.575040 -0.349897 0.072072
0.018319 -0.402136 -0.251533
-0.415935 0.515729 0.145307
-0.292402 -0.266183 -0.234251
0.690168 -0.176956 -0.019858
0.326186 0.710460 -0.137643
0.119116 0.496621 0.329862
-0.492401 -0.611225 -0.241269
0.525137 0.369868 0.298802
-0.499558 -0.268029 -0.226609
-0.511243 0.376390 0.143015
-0.581335 -0.114352 -0.217116
-0.544973 -0.002987 -0.213800
0.493248 0.024620 0.129328
0.557516 -0.421510 -0.272439
-0.241588 -0.675048 -0.253293
0.436018 0.173129 0.304485
-0.450300 -0.198348 0.321935
-0.410621 -0.287883 -0.230756
-0.655084 -0.200031 -0.217961
0.366637 -0.664179 0.003925
0.565491 0.178795 -0.247560
0.243929 0.318238 -0.229728
-0.542913 -0.117300 -0.218671
-0.702530 0.046443 -0.196850
-0.603916 -0.438169 0.112305
-0.403293 -0.181672 0.320883
-0.230115 -0.201546 -0.233862
-0.448521 -0.644392 0.097865
-0.175624 -0.026673 0.113603
0.458909 0.224261 0.211105
-0.734950 0.513069 -0.174738
0.199324 0.341667 0.248097
0.683045 -0.053354 0.028727
0.123897 0.698770 -0.191193
0.553303 -0.644567 -0.144828
-0.086227 0.003558 0.111539
-0.244452 0.067819 0.120131
-0.622557 -0.654964 -0.238253
-0.710665 0.287191 0.065140
-0.303526 -0.709259 -0.030830
-0.522581 -0.715161 -0.240549
-0.446575 -0.588277 0.107940
0.338929 0.498476 0.321748
-0.637445 -0.731449 -0.054251
0.438377 0.358351 0.246962
0.534539 0.020408 0.288404
-0.305002 -0.568473 0.127447
-0.323297 0.021899 0.121143
-0.505899 -0.561487 0.279471
0.135596 -0.594176 0.078203
-0.251328 -0.552631 0.094365
-0.662361 -0.385395 0.079162
-0.511000 -0.497747 0.262880
0.264541 0.459430 0.322883
0.031098 0.680426 0.075741
-0.397095 -0.422835 -0.236920
-0.353307 0.661536 -0.100666
0.281639 0.126667 -0.239168
0.625114 -0.644347 -0.037572
-0.073803 -0.420592 0.093287
-0.466281 -0.219505 0.321644
0.524707 0.277018 0.100241
0.543529 -0.462364 0.068529
0.479512 -0.202671 0.081807
-0.366586 -0.715598 0.012994
-0.699420 0.592184 -0.183083
-0.588451 -0.079988 0.126751
0.674366 0.081064 0.054356
0.539352 -0.275503 0.076522
0.383193 -0.201628 -0.256721
0.575326 -0.286934 0.074702
-0.527035 -0.312881 0.178579
-0.655545 -0.509122 0.021380
0.409520 0.031327 -0.247932
-0.059698 -0.561997 0.086831
0.186831 -0.646727 -0.268071
0.704691 -0.428308 -0.117544
-0.060743 0.336492 0.329849
-0.557777 0.278081 0.140626
-0.723412 0.370033 -0.134854
-0.466034 -0.260276 -0.227533
0.562263 -0.422115 -0.272642
0.384314 -0.200533 -0.256717
0.583441 0.448210 0.105232
-0.111329 0.285484 -0.217862
-0.610887 -0.372006 0.115340
-0.577185 -0.550927 0.106580
0.652117 0.402866 0.072803
0.116577 -0.681632 0.005137
0.629536 0.676056 0.113070
0.671195 0.023302 -0.157942
0.646875 -0.411563 -0.275352
0.199532 0.470536 0.325771
-0.455951 -0.708422 -0.246704
-0.252451 -0.478154 0.097531
0.292775 -0.188884 0.294640
0.421410 -0.484434 0.186914
0.635210 0.560622 -0.093177
-0.568069 0.375020 0.145075
0.210030 -0.372722 0.084717
0.475714 -0.416180 0.119667
-0.214375 0.625246 -0.199772
-0.636307 0.498599 0.152801
0.083759 -0.287281 0.093006
0.607695 -0.065543 0.082781
-0.094773 0.529977 0.178491
-0.317822 -0.324745 0.258996
-0.375821 0.101689 -0.215714
0.603934 -0.579951 -0.280814
0.455037 -0.444261 0.169930
0.037380 0.326590 -0.221680
0.603948 -0.338635 0.071467
-0.399250 -0.263387 -0.230152
0.243397 0.550994 0.234899
0.206287 0.703106 -0.159843
0.659920 -0.157329 0.076985
0.377186 0.499047 -0.227111
0.099354 0.544043 0.165938
-0.056806 -0.211231 -0.240726
0.337303 0.455320 0.319999
0.705412 -0.418756 -0.076696
0.238905 0.313019 -0.229759
-0.377492 -0.583075 0.099069
0.063067 -0.679581 -0.124501
-0.013583 0.403346 -0.216562
0.002024 0.093148 -0.230153
-0.015436 0.047743 0.286546
0.682698 -0.630505 -0.258442
-0.247739 -0.509129 -0.246105
0.668152 -0.631442 -0.260118
0.467274 0.564218 0.287718
0.112542 0.267539 -0.226958
0.690691 -0.263818 -0.184734
-0.140494 0.319691 0.210669
0.533567 0.254097 -0.243212
-0.369841 0.059862 -0.217691
0.334639 0.308471 -0.233518
0.121994 -0.655738 0.076128
-0.479188 -0.697758 -0.245391
0.512641 0.606737 0.114519
-0.707489 0.267777 0.117515
-0.491204 -0.217429 -0.224798
-0.645873 -0.212293 -0.218818
0.313168 -0.097653 -0.249751
0.549897 0.645291 -0.227413
-0.137861 0.616116 -0.203007
0.556938 -0.454637 -0.273807
0.262542 0.571549 -0.219797
0.187070 -0.450719 0.082302
0.135007 0.609824 -0.213439
0.716512 -0.547799 -0.020574
0.234340 -0.662339 -0.244104
0.136833 0.690756 0.008963
-0.627819 0.283976 -0.198678
-0.065630 -0.199760 0.102244
0.230151 -0.512541 0.078103
0.331762 0.197757 0.298759
-0.578164 -0.014238 0.129126
-0.149049 -0.695482 -0.098860
0.475255 -0.644238 -0.274156
0.317450 -0.109299 -0.250399
0.322652 0.359132 -0.230946
-0.640860 -0.229890 0.122418
0.529036 0.208203 0.302490
0.238747 0.491429 -0.222271
-0.381727 0.096704 0.222572
-0.273190 0.028346 -0.222615
-0.718310 0.379692 0.034006
-0.586203 0.545942 -0.189242
0.141584 -0.026960 0.307066
0.559155 -0.627029 0.061041
0.633302 -0.339062 -0.271806
-0.648345 -0.678322 -0.119516
-0.034143 0.528984 0.295531
-0.012039 0.420203 0.331545
0.148610 -0.030134 0.306671
0.376992 -0.202420 0.085638
0.533769 0.585741 0.112851
0.311948 -0.376488 -0.261400
0.492808 -0.267089 0.078609
-0.066311 0.677289 -0.006001
-0.004035 0.420030 0.331240
0.353774 0.356533 0.155605
-0.033441 -0.681402 -0.234396
-0.136426 -0.653533 -0.256310
-0.337190 0.538299 0.143319
-0.625480 0.293095 -0.198382
0.470974 0.154103 0.302384
0.215948 0.282247 0.111966
0.432302 0.057683 -0.247676
0.444570 -0.527030 -0.272656
-0.529594 -0.722293 -0.091362
0.539744 0.283024 0.099932
-0.517921 -0.531644 0.105180
0.354802 0.032111 -0.245860
-0.647301 -0.265842 0.121150
0.106758 -0.471165 -0.257724
0.616997 0.070985 -0.254001
-0.491816 -0.724213 0.010793
0.116934 -0.316097 -0.251599
0.633650 0.617510 -0.020689
0.347689 0.367507 -0.231528
-0.009406 -0.679308 -0.243871
-0.630453 -0.461910 0.112299
0.108229 0.458463 0.328668
-0.147645 0.407106 -0.211408
0.366515 -0.665689 0.037637
0.510248 0.490575 0.114855
-0.531060 0.568536 -0.190349
-0.008450 0.253979 -0.223017
0.051999 0.693721 -0.190160
-0.053352 0.397753 0.332143
-0.713299 0.290796 -0.004202
-0.363227 0.490112 0.142268
-0.657885 -0.170767 0.125532
0.408461 0.111322 0.302920
0.520968 0.220509 -0.244151
-0.044208 0.369220 -0.216852
0.145026 -0.253960 0.297417
-0.087222 0.525393 0.293225
-0.056330 0.675589 0.047757
-0.355567 -0.041699 0.324975
0.094375 -0.254159 -0.248161
-0.477892 -0.611086 0.100357
0.602156 0.733013 -0.212913
0.486912 0.360752 0.268872
0.272161 0.706735 -0.138405
-0.029169 0.064730 -0.230183
-0.102491 0.573190 -0.206125
0.526814 -0.024784 0.087504
-0.219930 0.157462 -0.219184
-0.535570 -0.164297 0.237779
-0.277384 0.662301 0.000771
-0.148646 -0.701672 0.040783
0.427610 0.605551 0.117638
