0.079356 0.416509 -0.243513
-0.696280 -0.201496 -0.180316
0.896113 0.162646 -0.286926
-0.293073 -0.077787 -0.211623
-0.190630 0.053031 0.122245
-0.382191 -0.384696 0.248793
-0.268855 -0.184820 0.129991
0.421381 -0.523704 0.080703
0.035877 0.221152 0.103886
-0.755722 0.060592 0.149878
0.642007 -0.250303 -0.198504
0.240830 -0.091925 -0.251687
0.296220 0.462038 0.187036
-0.053711 0.573076 0.313435
0.920651 0.169070 0.004444
-0.317338 0.013888 0.132085
0.323599 0.140758 -0.259735
0.532566 -0.202472 -0.272775
0.014536 0.099385 0.115217
0.083181 0.575802 0.097554
0.132228 -0.487932 0.307741
0.051435 -0.653439 -0.233045
0.549471 0.266822 -0.277717
-0.134174 0.268566 0.116311
-0.633153 0.266161 0.050012
0.249666 0.128688 -0.254077
-0.082851 0.468632 0.307557
-0.656390 0.059120 -0.185355
-0.358410 0.726235 -0.167413
0.262313 -0.267251 0.090667
0.212211 -0.712229 0.131788
-0.240293 0.219997 0.297570
0.366730 -0.559538 0.085095
0.380875 0.476877 0.075926
-0.328171 -0.137929 0.134088
-0.005756 -0.044227 0.314654
0.125226 0.454607 0.300897
-0.407191 0.081606 0.138317
0.756786 -0.058329 -0.287271
-0.180263 -0.684859 -0.215365
-0.048584 -0.213277 -0.228961
0.245047 -0.305093 0.092262
-0.314681 -0.086243 -0.209931
0.236545 -0.445433 0.093999
0.022595 -0.027281 -0.235771
0.643220 -0.276312 0.051926
0.616200 0.026416 0.092444
-0.070481 -0.764927 0.117000
-0.372050 -0.318805 0.138804
-0.378512 0.586422 0.132211
-0.276803 0.340628 0.332040
0.257932 -0.880299 -0.012539
-0.401259 0.643850 -0.038186
-0.077544 0.283387 0.111934
-0.067681 0.558548 0.314600
0.148437 -0.907697 -0.238356
0.201943 -0.946578 -0.214579
-0.744500 0.109574 -0.129654
-0.291180 -0.454119 -0.208823
-0.140152 0.191121 0.117367
0.200478 -0.744293 0.252377
-0.081692 -0.142900 -0.227020
-0.159984 0.754465 -0.228146
0.145256 -0.712929 -0.239640
-0.000020 0.022143 0.313703
-0.881801 -0.104271 -0.165099
0.066048 -0.089456 0.309605
0.183713 -0.621129 0.304908
-0.783837 -0.267046 0.169385
0.084857 0.663613 0.096741
0.739263 0.337802 0.039992
0.576984 -0.358410 -0.154013
0.257808 -0.560710 -0.249299
-0.132126 -0.079114 -0.223724
-0.149281 -0.496384 -0.219170
-0.250378 -0.051153 -0.215044
0.203257 0.072552 -0.250146
-0.037353 -0.383956 -0.228471
-0.029440 0.742471 0.104725
0.140974 -0.676261 0.308555
0.083496 -0.398028 -0.237455
-0.008375 -0.039183 -0.233348
-0.346702 -0.329229 -0.205622
0.257841 -0.352602 0.091671
0.544768 0.109085 0.272030
-0.462155 0.552176 -0.082348
0.535334 0.318590 0.065542
-0.500588 0.478980 0.027306
0.479064 0.128837 0.276820
0.338649 -0.758414 0.042650
-0.302148 0.419387 -0.214828
0.103826 -0.353150 0.103264
0.023896 -0.679891 0.111834
0.442118 0.133202 0.279565
0.326568 -0.720311 -0.253225
0.241181 -0.294221 0.092468
0.474681 0.048329 -0.270381
-0.373149 -0.055481 -0.205772
0.421297 -0.621564 -0.008884
-0.338130 0.732244 0.067124
0.447998 -0.314171 0.077062
0.398448 -0.438845 0.081765
-0.644396 0.023632 -0.185980
0.270846 -0.850592 -0.095207
0.788521 -0.037948 -0.018687
-0.268345 0.191723 0.152121
0.531809 0.006622 0.153782
0.329942 -0.749938 -0.157176
0.317342 -0.668790 0.089666
-0.064580 0.064679 0.138797
-0.606826 -0.189403 0.155458
-0.259766 0.014434 0.127749
-0.679881 0.206653 -0.081022
0.030878 0.403037 0.211688
0.327132 0.557275 -0.263258
-0.091108 -0.335901 0.117797
-0.297889 0.530205 0.149403
0.131410 -0.655969 -0.239043
-0.546918 0.253957 0.147483
-0.190895 0.305308 0.235249
0.250367 0.261974 -0.255172
0.144094 -0.296653 0.099792
0.146026 -0.302722 0.099694
0.160381 -0.493188 0.100104
-0.026067 -0.620169 0.319960
-0.002474 0.632525 0.309115
-0.776612 -0.033761 -0.175583
-0.768332 0.041909 0.138052
-0.927212 -0.193695 -0.009207
0.341092 -0.728557 -0.190286
0.384977 0.184105 0.079018
-0.438689 0.085878 0.140654
0.170110 -0.638822 -0.242089
0.096862 0.103433 0.305778
0.243426 -0.687074 -0.247229
-0.126510 0.245652 0.115914
0.203173 -0.737256 -0.243807
0.469205 -0.543385 -0.028447
0.447249 0.273700 0.072521
0.063925 -0.746217 0.109340
-0.226298 0.119294 0.124411
0.508937 -0.479114 -0.039606
0.292190 0.444455 0.104597
0.431078 0.307134 -0.269123
-0.310673 0.527751 -0.215034
-0.579479 -0.337939 -0.188038
0.175960 0.681335 0.089747
0.328522 0.214074 0.081921
0.361862 -0.725920 0.081450
0.382610 -0.547769 -0.258791
0.034198 0.246183 0.103817
0.366758 -0.705985 -0.027648
-0.875696 -0.116388 0.030344
0.695636 0.098799 0.055198
-0.230677 0.234937 0.300389
-0.630178 0.124755 0.154759
-0.432310 0.594816 -0.040180
-0.336928 -0.474934 -0.205218
0.511224 0.071897 0.274845
0.254565 -0.232903 0.090981
0.057282 0.454626 0.124683
-0.288340 -0.618258 -0.207753
-0.572386 -0.269436 -0.189107
-0.532710 0.440385 -0.083499
0.321300 -0.237708 -0.256603
-0.379133 -0.197273 0.138386
-0.228531 -0.074364 0.126093
-0.409299 0.643687 -0.151061
0.099027 -0.465603 -0.238095
0.495485 -0.507097 0.019955
0.443049 -0.013930 0.189468
-0.123475 -0.579885 0.122141
-0.510028 0.175414 0.313251
-0.309415 0.492917 0.319775
0.435155 0.320845 -0.269538
-0.308843 0.094641 0.130815
-0.192231 0.593583 -0.224461
0.299713 -0.074823 -0.256252
-0.316353 0.486176 0.281540
-0.059664 0.216844 -0.231491
0.578560 -0.044046 -0.277475
-0.554057 0.065934 -0.193109
0.269743 0.557804 0.083656
-0.025667 -0.793061 0.115984
0.439401 -0.585427 -0.075386
0.292092 -0.095482 -0.255517
-0.361066 0.704322 -0.008742
-0.893074 -0.130781 -0.087757
0.536519 -0.004053 0.067976
0.716511 -0.071541 -0.287640
-0.597085 -0.373585 -0.186434
0.749079 0.053574 -0.291069
0.604082 0.215766 0.143413
0.249245 -0.655093 0.146228
0.295613 0.617696 0.075105
-0.318703 0.388460 -0.213341
-0.166555 0.356964 0.118304
-0.133918 -0.565002 -0.219789
-0.234544 0.261044 -0.218677
0.356385 -0.073259 0.082071
-0.049021 0.799972 -0.236851
-0.152646 -0.238638 -0.220932
0.324721 -0.466426 -0.255071
-0.615035 -0.173011 0.155948
0.445673 -0.481609 0.078546
0.890748 0.118114 0.036005
0.750770 0.144816 -0.291910
0.139915 0.273425 -0.246951
-0.461171 0.387262 0.139989
-0.483019 0.234997 0.163189
0.443726 -0.571946 -0.134741
-0.089408 -0.698730 0.120507
0.121654 0.006969 -0.243493
0.536407 -0.431610 -0.074827
-0.799867 -0.104384 -0.173281
0.016921 0.134799 -0.236612
-0.644552 -0.076954 -0.185182
-0.252674 0.796303 0.121101
0.171903 -0.886170 -0.240290
0.479986 0.294492 0.069895
0.725092 0.276096 -0.291004
0.438276 -0.584568 -0.099092
-0.218901 0.641557 0.274421
-0.487643 0.504646 -0.018701
0.316049 0.434755 -0.261466
0.161699 -0.572785 -0.241973
-0.291505 -0.134872 0.131305
0.178301 0.494576 0.296591
-0.505628 0.489060 -0.134733
0.126940 -0.896466 -0.236826
0.448729 0.001310 0.280099
0.795599 0.158928 -0.295394
-0.411775 -0.330459 0.141884
0.291065 -0.129829 -0.255171
0.294972 0.465075 0.228060
-0.160351 0.704226 -0.227725
-0.613240 0.309846 -0.058432
-0.186050 -0.086073 0.122988
0.250327 0.495947 0.280832
-0.100570 0.618295 -0.231552
0.574733 0.348002 0.062347
0.245405 0.572599 0.085372
0.723113 -0.121074 -0.203625
0.019932 0.225100 0.105055
-0.014123 -0.534212 -0.229044
-0.301936 -0.246918 0.154924
-0.301019 0.483667 0.332744
0.348942 -0.075261 0.082647
0.724803 -0.128444 -0.113518
-0.281165 -0.224867 0.252619
-0.406706 0.375199 0.135985
0.191014 -0.711336 -0.243095
0.590189 0.051022 -0.279093
-0.181943 0.158259 -0.221831
0.874089 0.118196 0.041618
0.080331 -0.759232 0.108208
-0.568793 -0.299995 0.153461
0.696595 0.346838 -0.281988
0.384237 -0.675065 -0.056277
-0.427647 0.261652 -0.204151
0.323128 -0.682457 0.089338
-0.624683 0.001710 -0.187292
-0.058314 0.054303 0.189367
0.186408 0.644700 0.089247
0.424786 0.375922 -0.269188
-0.024831 -0.039414 0.316052
-0.687329 0.057416 -0.183014
0.530411 -0.103107 -0.273390
-0.655002 0.001204 -0.185007
-0.134954 0.680422 0.318709
0.038545 -0.369186 0.108302
-0.387825 0.490356 -0.208936
-0.510282 0.166719 0.305753
0.057005 0.449195 0.169438
0.217407 0.186233 0.090500
-0.754433 0.092323 -0.116252
0.030255 0.241988 0.104146
0.853714 0.130427 0.043056
0.027585 -0.612774 0.316591
-0.205648 -0.063838 0.124289
-0.323074 -0.066234 0.133144
-0.454712 -0.202268 0.144113
0.235052 0.357566 0.293392
-0.077124 -0.366892 -0.225612
-0.490288 -0.140317 -0.196295
0.583006 -0.342385 -0.212042
0.357487 -0.343682 0.084103
-0.057336 -0.010814 -0.229886
0.862589 0.230191 0.041608
-0.085404 -0.120456 -0.226916
0.679887 0.225837 -0.287210
-0.609465 0.082421 -0.189069
0.804026 -0.016121 0.006139
-0.119964 0.196127 0.115809
0.766128 0.161634 -0.293197
-0.037968 0.108970 0.110320
-0.228235 -0.612118 -0.212324
0.285381 0.244868 -0.257673
0.353632 -0.035121 0.277773
-0.061080 0.512362 0.225134
0.225866 -0.685245 -0.245922
0.274114 0.164576 -0.256198
-0.581560 -0.429750 -0.187163
-0.406756 -0.472619 -0.199982
0.564578 0.099834 0.270612
0.520364 -0.233209 -0.271617
-0.579925 0.367578 -0.102231
0.588701 -0.166154 0.065317
-0.199381 -0.664366 -0.214086
0.110829 -0.156061 0.101196
0.197530 0.631739 -0.254088
-0.322943 -0.475917 -0.206262
0.136991 0.211639 0.096352
0.314329 -0.066416 0.085182
0.478212 -0.399891 -0.267141
0.141237 -0.916809 -0.232900
-0.552823 -0.324780 0.152453
-0.619460 0.222540 0.153187
0.431844 -0.471186 0.079505
-0.210957 -0.647159 0.129250
0.446660 0.473155 -0.271594
0.174344 0.518530 0.296701
-0.398001 0.003097 -0.204360
-0.008243 0.798415 0.102692
0.416885 0.496852 -0.269539
-0.404317 -0.329638 -0.201283
0.927759 0.213803 -0.067349
0.291823 0.564439 -0.260657
-0.071179 0.727215 0.107985
0.131308 0.243374 0.096532
-0.002673 0.034368 -0.234352
0.041207 -0.475991 -0.233663
0.270442 -0.856748 0.094665
0.304816 -0.612444 -0.252432
-0.440693 0.593144 -0.144405
0.682684 0.370153 0.054051
0.246901 -0.356100 0.092521
0.333848 0.167794 0.287442
-0.780620 0.057365 -0.175276
-0.000338 0.670205 0.103100
-0.044277 0.752603 -0.236838
0.610979 0.169658 0.096178
-0.546904 0.134767 0.148414
0.204042 -0.880051 0.099843
-0.606809 0.026518 -0.188831
-0.311582 -0.271290 0.236237
-0.325207 0.781041 -0.186567
0.775554 -0.055950 -0.041693
-0.255462 0.105333 0.126714
-0.444826 -0.261719 0.143834
0.151508 -0.885903 -0.238757
-0.353112 -0.326279 0.138626
-0.088202 0.365261 0.112096
-0.513783 0.461667 -0.005131
0.059844 0.557211 -0.243145
-0.026611 -0.054226 0.278985
0.592816 -0.339609 -0.097420
-0.263063 0.338711 0.331021
-0.845157 -0.073747 0.082360
-0.310673 -0.266923 0.210028
0.751356 0.217890 0.050074
-0.279587 -0.605708 0.134090
0.240892 -0.757958 0.096116
0.480748 -0.156768 -0.269233
0.122386 0.651196 0.094014
0.566060 0.018140 0.271139
-0.848136 -0.272576 0.174266
-0.144503 -0.507724 0.328719
-0.328236 -0.184545 0.134457
0.221314 -0.878446 0.098531
0.558743 0.224231 0.064518
-0.200468 0.289975 0.236575
-0.352803 0.725451 -0.080642
0.704176 0.161340 0.054067
-0.276445 -0.308833 -0.211068
-0.546844 0.422222 -0.121662
0.146637 0.182367 -0.246745
0.219177 -0.692176 0.302795
-0.132480 0.849106 -0.230956
-0.473212 0.245238 0.210849
-0.582329 -0.000897 -0.190459
0.905463 0.148126 -0.023788
-0.712152 -0.250755 -0.178736
-0.645433 0.247838 -0.187656
-0.099685 0.530325 -0.230930
0.246024 -0.884085 -0.147943
0.380491 0.276905 0.077519
0.613073 0.186985 0.174752
-0.523903 0.109039 0.146885
-0.721072 0.126314 0.053444
0.426246 -0.609398 -0.047570
-0.226824 -0.471395 -0.213530
-0.165305 0.701880 0.320825
0.672117 -0.225781 0.009849
-0.435658 0.540384 -0.205728
0.313073 -0.043595 0.195679
-0.147523 0.654542 -0.228302
-0.307950 0.508739 0.198753
-0.122601 -0.317235 0.325553
0.154626 -0.517827 -0.241870
-0.352650 -0.368566 -0.204867
0.570636 0.105681 -0.278050
-0.544768 0.251127 0.147344
-0.933323 -0.226928 0.069634
-0.623442 0.306456 -0.173128
-0.010576 0.315779 -0.235958
0.027915 0.405454 0.147886
0.229258 -0.119797 -0.250599
0.079082 -0.083365 -0.239583
-0.164290 0.554646 -0.226259
-0.374556 0.675251 0.060045
-0.514490 0.460713 -0.199173
-0.202972 -0.316594 0.331624
0.380580 -0.675555 0.084960
-0.630477 -0.376156 -0.183902
0.711161 0.172574 0.053453
0.013430 -0.652144 -0.230195
0.741347 -0.112090 -0.024861
0.187266 0.093157 -0.249104
-0.331977 0.076280 -0.209901
0.320081 -0.780265 -0.025521
-0.193339 0.306394 0.190771
-0.364536 0.408476 0.292915
-0.241791 0.358763 0.329264
-0.000914 -0.486825 -0.230409
0.554891 0.233848 0.064733
0.099621 0.512838 0.204917
0.106941 -0.493001 -0.238476
-0.440535 -0.060376 0.141936
-0.382923 0.270913 -0.207589
-0.503366 0.475900 0.015409
0.570478 -0.365436 -0.183560
-0.225310 0.259718 0.154552
0.156481 0.295153 0.094233
-0.245296 0.226003 0.172586
-0.136299 0.400030 -0.227157
0.285811 -0.596940 0.144888
-0.042776 0.203797 -0.232659
-0.769954 -0.227962 -0.174565
0.110682 -0.643360 0.310577
0.424372 0.377846 0.073428
0.554360 -0.389477 -0.197244
-0.548745 -0.454873 0.153164
0.230359 -0.917900 -0.067569
-0.504558 0.202672 0.146685
0.037447 -0.600641 0.315754
-0.643381 0.056316 0.156287
-0.026182 -0.440455 -0.228870
-0.743061 -0.135843 0.165291
0.211755 -0.256552 0.094388
0.517815 -0.020888 -0.273085
-0.271100 -0.257822 -0.211869
0.045700 -0.236130 0.106723
-0.218922 0.272830 0.127847
-0.612545 -0.060345 -0.187720
0.009097 0.100609 -0.235756
-0.751342 0.085271 -0.009090
0.200688 0.406419 -0.252564
-0.600147 0.011691 -0.189217
-0.159024 0.522888 0.321752
0.357343 -0.354723 -0.258400
0.072697 0.616730 -0.244577
0.320230 -0.452399 0.087757
0.275193 -0.611459 0.124047
-0.686080 -0.367888 0.162817
0.132805 -0.310098 0.100747
-0.161599 0.732084 0.277740
0.807879 0.216573 -0.296768
-0.042947 0.540745 -0.235281
-0.414991 0.324995 0.323786
-0.239927 0.619350 0.174494
0.642771 -0.259462 -0.105523
0.046355 -0.063315 -0.237277
-0.057240 -0.628248 0.117535
-0.590129 0.342161 -0.019481
-0.563980 0.373098 0.075032
0.483888 0.405624 0.068732
-0.430321 0.311005 0.231200
-0.614895 0.284300 0.147048
-0.035455 -0.044904 0.191830
0.323266 0.014979 0.289433
-0.039246 0.362738 0.108432
-0.068134 0.479914 0.109689
0.512907 -0.484681 0.066755
0.294012 -0.457552 0.089770
0.645173 -0.250335 -0.153199
0.503144 -0.469788 -0.205598
-0.091264 0.258822 0.113159
0.080045 -0.095880 0.110241
-0.192837 -0.406997 -0.216591
-0.307447 0.754205 -0.217048
0.373626 -0.399962 0.083329
-0.761581 0.049876 0.162627
-0.167679 0.824743 0.114483
-0.483611 0.112824 0.143823
-0.066390 0.295905 -0.231603
0.239673 -0.903317 -0.065846
0.287376 0.190921 0.085198
-0.918728 -0.247029 -0.163221
0.410647 -0.619542 -0.178460
-0.283733 0.141874 -0.214044
-0.267246 -0.346423 0.336693
-0.470814 -0.424856 -0.195535
0.775503 0.085146 -0.293305
-0.106255 -0.467335 -0.222635
0.469814 -0.138490 -0.268554
0.438807 0.471432 0.071610
0.444286 -0.574562 -0.103328
0.537777 -0.419635 -0.162704
-0.483724 0.273848 0.142573
-0.359372 -0.457922 -0.203662
0.389453 -0.070636 -0.263037
0.392258 -0.655177 -0.120504
-0.118655 0.424951 0.189984
-0.194975 -0.704883 -0.209680
0.475859 0.194333 0.276549
-0.340805 -0.603725 -0.203919
-0.113445 -0.331456 0.119444
-0.398999 0.635748 0.066589
0.150821 -0.489681 0.304873
0.353169 -0.712513 -0.162368
-0.023304 0.457557 -0.236109
-0.338671 0.450910 0.280307
0.000051 0.165658 -0.235584
0.428731 0.299565 0.073712
0.384753 0.101959 0.284126
0.312398 -0.101443 -0.256998
-0.193035 -0.381725 -0.216774
0.016720 0.610129 0.102286
-0.259064 0.133822 -0.215837
-0.226114 -0.287009 0.333134
-0.752865 0.090737 -0.178343
0.087948 -0.418617 -0.237629
-0.068570 0.562343 -0.233522
0.534298 -0.435200 -0.072643
0.729244 -0.124376 -0.086838
0.392610 -0.420918 -0.260536
-0.148910 0.364586 0.300893
0.503020 -0.065926 0.070980
0.456801 0.284109 -0.270879
-0.509402 0.183645 0.248373
-0.327664 0.760709 -0.039237
-0.001662 -0.767110 -0.228161
0.597496 -0.349178 0.054924
0.347554 0.585199 0.075940
0.095493 -0.777141 0.107207
-0.610006 0.297548 0.097801
0.413061 0.267383 0.075143
-0.265050 -0.171330 -0.213001
0.125513 0.184598 0.097427
-0.092605 0.464061 0.317215
0.765387 -0.062190 -0.130344
-0.352673 -0.460673 -0.204145
0.417286 -0.020143 0.226440
0.448593 -0.576143 -0.027905
0.062221 0.307075 0.101232
0.280169 -0.612141 0.200937
0.740294 -0.096738 -0.177460
-0.023458 -0.111916 0.148775
-0.055333 0.384973 0.109469
-0.538721 0.292058 0.146569
-0.258143 0.106834 -0.215695
0.746188 -0.075701 -0.282244
0.566885 0.014682 0.146197
0.249738 -0.726610 0.095205
-0.097656 0.132113 0.114631
-0.701963 0.162119 0.004203
0.211249 -0.928366 -0.242921
-0.399525 0.648127 -0.051884
-0.668059 0.075020 0.157998
0.385121 0.354564 0.076564
0.211896 -0.337283 0.095008
-0.317847 -0.464773 -0.206733
-0.863772 -0.132920 0.174351
-0.149835 -0.279829 -0.220822
0.168317 0.020455 0.301050
-0.307732 0.753383 0.125580
-0.107860 0.051506 0.116029
-0.276651 0.779551 0.123036
0.525064 -0.104488 -0.272977
0.265178 0.636816 0.076042
0.753333 0.315622 0.049161
0.388666 -0.010956 0.284715
-0.029213 -0.071383 0.194310
0.197668 0.288583 0.157795
-0.204482 0.932658 0.104826
0.062323 0.389614 0.306139
-0.431373 0.314244 0.187201
0.376682 -0.220348 0.081694
-0.376379 -0.373361 0.229826
0.224241 -0.056717 -0.250714
0.042656 0.421302 0.215444
-0.498898 0.204815 0.207950
0.700835 0.222621 -0.288761
0.402485 -0.092479 -0.263847
0.664907 -0.099285 -0.283540
-0.508133 -0.457011 0.150124
-0.582377 0.293220 -0.192755
0.196985 0.151864 0.092305
-0.178010 0.482700 0.323495
-0.885835 -0.196083 -0.166095
0.716946 0.086901 0.053688
-0.670143 -0.224310 0.160496
0.322813 -0.337155 0.086661
0.743894 -0.114385 0.031933
-0.293106 -0.477028 0.134101
0.374824 -0.688577 -0.069012
-0.147149 -0.071010 -0.222657
0.316973 -0.713193 -0.252559
0.171995 0.402708 0.297784
0.429339 0.422291 0.072707
-0.178728 0.362300 0.324491
-0.584648 -0.436400 -0.186879
0.828586 0.077625 0.045360
-0.281648 0.844792 -0.138634
-0.865427 -0.102057 0.047907
0.049163 -0.159394 0.105862
-0.219198 -0.416630 -0.214533
0.221697 0.143156 0.296074
0.037313 0.452905 0.101966
0.543601 -0.330291 -0.272606
0.726696 -0.112395 -0.230472
-0.381515 -0.400590 0.263152
-0.066009 -0.149358 -0.228150
0.116918 -0.236210 -0.241235
-0.377395 0.561204 -0.210275
0.712120 0.127430 0.053734
-0.556875 0.079892 -0.193006
-0.394402 -0.522830 0.142081
0.636336 0.031056 0.086799
-0.629528 0.275010 0.022226
0.713637 -0.145698 -0.117630
0.532710 0.265974 -0.276449
0.421822 -0.617925 -0.034035
0.196652 -0.785144 -0.242942
0.774075 -0.054221 -0.078235
0.606187 -0.197911 0.064249
-0.457843 -0.189992 -0.198348
-0.832667 -0.028090 -0.171409
0.075850 0.731882 -0.245715
0.466396 0.133742 0.277734
-0.305312 0.786559 0.046891
-0.378464 -0.178588 -0.204410
0.483016 -0.140592 0.073069
0.090315 -0.355082 -0.238304
-0.516525 -0.192052 -0.193916
-0.106455 0.493734 -0.230135
0.321749 -0.622398 -0.253628
-0.391422 0.239414 -0.206703
-0.396103 0.354054 0.331891
-0.355087 0.423545 0.292189
-0.323378 0.779865 -0.150022
-0.396654 -0.032859 0.138419
-0.481663 0.497027 0.134650
-0.501296 0.480322 0.005198
-0.308051 0.511604 0.171632
-0.297149 0.777073 -0.218001
-0.024272 -0.702397 -0.226966
-0.656219 -0.118828 -0.183977
-0.199498 0.659051 0.323733
0.284578 0.606477 -0.254787
-0.550377 0.354384 0.146958
-0.341186 0.174705 -0.209977
0.367930 -0.686594 -0.184822
-0.068544 0.076679 0.122945
-0.226284 0.839568 -0.223823
0.420713 0.326037 -0.268491
-0.167017 -0.507583 0.330412
0.524975 0.020469 0.274212
0.074579 -0.829086 -0.233413
-0.294927 0.517183 -0.216136
0.103031 0.555933 0.096215
0.796044 -0.022745 -0.047988
0.363767 -0.194292 -0.260138
-0.713721 0.129159 0.132480
0.242168 -0.059907 0.212883
0.757906 -0.069387 -0.172203
-0.594918 0.068097 0.152549
-0.467566 0.103997 -0.199915
0.807047 0.021874 -0.291524
0.362680 -0.688955 -0.238313
0.463292 -0.520060 0.077521
0.612022 0.219779 0.258389
-0.390390 0.137232 0.342178
0.165760 -0.319703 0.098342
0.741940 -0.026435 0.052693
-0.337212 0.594637 -0.213560
0.178720 0.402658 -0.250881
-0.618551 -0.258821 -0.185716
0.220992 0.468784 0.293580
-0.412339 -0.312158 0.141784
0.040374 0.238305 0.103414
-0.645957 0.058205 -0.186133
0.163434 0.266066 0.093937
0.322920 -0.467050 -0.254931
0.269754 -0.809138 0.094344
0.343912 0.336633 0.079805
-0.178487 -0.502955 -0.216921
0.648845 0.024047 0.059304
0.101502 -0.349411 0.103410
0.142563 -0.501392 0.307068
-0.529149 -0.490284 -0.190634
-0.198677 0.302029 0.153977
-0.059332 -0.103260 -0.229012
-0.768993 -0.105037 -0.175599
0.704291 0.113176 0.054435
-0.367674 -0.353317 0.173930
0.287821 -0.601745 0.216559
-0.322704 -0.307220 0.340560
-0.377580 -0.453958 -0.202323
-0.399512 -0.465239 0.142015
0.726498 0.244537 0.051736
0.249275 -0.249694 -0.251089
0.304819 -0.460473 -0.253620
-0.793160 -0.179145 0.169399
-0.144441 0.773467 -0.229464
-0.302861 0.519826 0.171728
0.145949 -0.200729 -0.243697
-0.563872 0.232885 0.148924
-0.359223 0.698854 0.066486
0.575599 0.056478 0.270121
-0.429648 0.330045 0.138064
0.583306 -0.217667 0.066125
0.172243 0.520315 0.296846
0.409785 -0.026687 0.077689
-0.538947 -0.032408 -0.193477
-0.330487 0.768140 -0.145991
0.660905 -0.244316 0.016577
-0.092103 -0.654836 -0.222233
-0.322911 -0.215454 -0.208302
-0.058500 -0.596781 -0.225216
0.859973 0.087219 -0.124675
0.044043 -0.438998 0.313994
-0.161322 -0.194111 0.121972
0.231708 -0.061506 0.128894
-0.410017 -0.289519 0.141432
0.836773 0.069217 -0.293227
0.338046 -0.037781 0.182176
-0.048941 0.481057 0.108236
0.226346 0.260416 -0.253353
-0.121219 0.730074 0.305205
0.410071 -0.618889 -0.192506
0.383515 -0.510241 -0.259153
-0.356506 0.509811 0.131155
-0.472524 0.283400 -0.200945
0.290693 -0.441547 0.089894
-0.685535 0.171323 0.155301
0.428893 -0.611852 0.012078
0.483625 -0.525366 0.015085
-0.297687 0.800005 0.034778
-0.051171 -0.115780 -0.229529
0.045950 -0.595792 0.315076
0.563181 0.013106 0.224737
0.210768 -0.143421 0.093577
0.403649 -0.022135 0.106886
0.166364 -0.643767 0.306391
0.062294 -0.684231 -0.233621
-0.045664 0.261170 0.109709
0.646367 0.147208 -0.284073
-0.061648 0.247587 0.111018
0.070869 -0.290717 0.105256
0.544472 0.010292 0.069498
-0.879900 -0.272157 -0.165946
-0.564168 -0.036390 -0.191548
-0.483636 -0.223009 -0.196148
0.259727 0.195134 -0.255354
-0.188309 -0.514241 -0.216094
0.327768 0.290632 0.081379
-0.641475 0.258267 0.002427
0.485172 0.187669 -0.272260
-0.298021 0.112943 -0.212743
-0.538455 -0.199594 0.150393
-0.251300 0.425930 0.329454
-0.187135 -0.217176 0.124095
-0.568366 0.384103 -0.085992
-0.367310 0.407520 0.262037
-0.359037 0.362047 -0.210099
0.160180 -0.766254 -0.240346
-0.358773 -0.354491 0.311031
0.072740 0.145769 0.101702
0.210920 -0.941725 -0.130418
-0.517897 -0.425419 -0.191988
0.086014 0.483748 0.272214
-0.921368 -0.192831 -0.163446
-0.235207 0.282512 0.329365
-0.025050 -0.537404 -0.228197
-0.309543 -0.123703 -0.210025
0.440352 -0.513126 -0.263407
0.142554 -0.360138 0.100405
0.405938 -0.441737 0.081224
0.028058 -0.153388 0.107403
0.378474 -0.198428 -0.261212
0.075413 -0.806502 -0.233652
-0.456549 0.571061 -0.171924
-0.000640 -0.402272 0.317069
0.365763 -0.506533 0.084754
0.075219 0.288749 -0.242202
0.448755 0.425426 0.071221
-0.210686 0.821692 0.117743
0.305564 0.349388 -0.260009
0.551175 -0.395706 -0.186699
0.669891 -0.214075 -0.126743
-0.416864 -0.416915 -0.199657
-0.291296 -0.536321 0.134428
-0.308429 0.362668 -0.213912
-0.036636 -0.051458 0.157059
0.245268 -0.748237 -0.246889
-0.626000 0.098870 -0.187953
-0.219925 0.085504 -0.218404
-0.514338 0.193778 -0.197097
-0.370675 0.704917 -0.150721
-0.778105 -0.268482 -0.173635
0.524651 -0.085082 0.069502
-0.565721 -0.430092 0.154247
-0.352217 0.620791 0.129964
-0.676098 -0.088795 -0.182716
0.057674 0.191346 -0.240121
0.850439 0.078765 -0.184469
-0.117603 0.238846 -0.227303
-0.686036 -0.344419 -0.179969
-0.454348 0.561435 -0.054312
-0.191355 0.169422 0.121389
-0.590413 -0.431971 0.156120
-0.872378 -0.120442 0.113871
0.643374 0.039139 0.129532
-0.053791 0.013558 0.127217
-0.175133 -0.234861 0.123330
0.633762 -0.243683 -0.280068
0.752943 -0.038694 0.051961
0.448118 -0.574832 -0.046406
-0.894218 -0.177596 -0.165609
0.231334 0.234303 0.089076
0.637441 0.044442 0.265562
0.421681 -0.346626 -0.263304
-0.194244 -0.525263 0.129601
0.817596 0.017107 -0.098776
0.069661 0.394381 -0.242610
0.179849 0.238952 0.092914
-0.096499 0.379316 0.112610
-0.949099 -0.223757 -0.052494
0.662353 0.086521 -0.284801
0.195961 0.553540 -0.253358
0.458702 -0.009650 0.112849
0.254986 -0.865110 -0.190612
-0.296239 0.148667 0.141443
-0.051049 -0.347258 -0.227728
-0.017034 -0.274148 -0.230859
0.362344 -0.699018 -0.152876
0.068003 0.473200 0.110638
-0.548598 0.407052 -0.010617
-0.572815 -0.434430 0.154815
-0.341777 -0.432160 0.141759
-0.705844 0.118270 -0.182097
0.589585 -0.274428 0.066097
-0.106511 -0.211736 -0.224614
0.312050 0.064421 0.289891
0.205339 0.557032 -0.254091
0.314320 0.451260 0.081135
-0.395925 -0.248342 -0.202550
-0.249440 0.891929 -0.103184
0.265073 -0.854213 -0.144849
0.025848 0.654582 -0.241348
0.527767 0.220744 0.066876
-0.601873 0.207226 -0.190616
-0.030999 -0.019336 -0.231801
0.086255 0.609001 -0.245537
0.156118 -0.835222 0.103099
-0.465429 0.038316 -0.199562
-0.505291 0.072906 -0.196833
-0.032691 -0.070144 0.152832
0.644975 -0.272403 0.041825
0.215632 -0.375961 -0.247570
-0.228187 0.652098 0.120386
-0.317651 -0.495364 -0.206509
0.653639 -0.117702 0.060051
0.294856 -0.664009 -0.251279
-0.370491 0.708877 -0.183605
-0.280610 -0.285877 0.337226
-0.241726 -0.459663 -0.212501
0.190552 -0.695643 0.304976
0.422969 -0.464635 0.080121
0.001599 -0.045868 -0.234046
0.554592 0.394799 -0.279103
-0.766038 0.045969 0.134262
-0.046850 -0.100684 0.112628
0.560721 -0.100736 0.066910
0.263198 0.402378 0.290924
-0.340317 0.068596 0.232446
0.797722 -0.005866 0.048335
-0.486341 -0.479247 0.148659
0.551309 0.205366 0.270785
-0.436277 -0.417101 -0.198194
0.786278 -0.019111 -0.219454
-0.501899 0.169736 0.350314
0.796318 -0.009420 -0.163549
0.567974 -0.098113 0.066344
-0.519638 0.312180 -0.197624
-0.192310 -0.653216 0.127894
0.126387 0.724538 0.089946
-0.346085 0.737351 -0.091786
0.050083 0.732168 -0.243778
0.253379 -0.008167 -0.253287
0.705359 0.270158 -0.289473
0.260708 0.389664 -0.256949
0.256502 -0.085341 0.089682
-0.374703 -0.056050 -0.205651
-0.402115 0.573692 -0.208513
0.813706 0.117122 -0.296429
0.153439 0.335437 -0.248453
-0.253043 0.889860 -0.135883
-0.090432 -0.264944 0.117192
-0.475550 0.165141 -0.199792
-0.928334 -0.212491 0.143336
0.432567 -0.457919 0.079347
0.042640 0.329833 -0.240072
-0.558307 0.208179 -0.193902
0.407256 -0.538600 0.081882
0.385540 0.463267 0.075682
0.020638 -0.424364 0.315641
0.291253 -0.827751 -0.009781
0.004203 -0.258030 0.110017
-0.161541 -0.339545 -0.219474
-0.338054 0.513804 -0.212865
0.891175 0.127469 -0.041792
0.256879 -0.863193 -0.180871
0.334236 -0.230476 0.084967
-0.365756 0.420179 0.170646
-0.097758 0.810488 0.109333
-0.360448 -0.063492 0.135934
-0.010253 -0.794314 -0.227302
-0.517459 -0.127429 0.148249
-0.474438 0.239829 0.241901
0.096924 -0.399613 0.104147
-0.382744 0.573192 0.132633
0.664858 -0.081566 0.058925
-0.473472 0.435519 -0.202063
-0.066498 -0.403499 -0.226125
0.289352 0.077073 0.291500
-0.314036 0.737247 0.126180
0.233763 0.360012 -0.254690
-0.648828 0.236200 0.095696
-0.088078 0.466017 0.256672
0.054447 -0.016025 0.309903
0.236121 0.552822 -0.256375
0.415605 -0.613859 -0.158894
-0.655709 0.254172 -0.163274
0.161566 -0.770976 -0.240413
0.318750 -0.420830 -0.254979
0.189304 0.589487 -0.253139
-0.296253 -0.024083 0.130796
-0.440033 0.264369 0.344919
-0.605949 -0.085821 0.154582
0.473096 -0.106668 0.073550
-0.715511 0.154088 -0.181649
0.898640 0.134591 0.000521
0.585164 0.386881 0.061258
0.489707 0.337716 -0.273774
0.309322 -0.748245 0.090891
-0.719611 -0.210681 0.164111
-0.808880 -0.042086 -0.173090
0.145382 -0.109582 0.098233
-0.674615 0.072101 0.158514
-0.049932 -0.392510 0.320702
0.073520 0.111055 0.304706
0.649529 0.020904 -0.283323
0.127879 0.381949 -0.246894
-0.461524 -0.078712 -0.198941
-0.311673 -0.309655 -0.208411
-0.723989 -0.254275 -0.177818
0.369792 0.005253 0.286008
-0.278828 0.765243 -0.219288
-0.157375 0.695576 -0.227882
0.363583 -0.713016 -0.009767
0.176931 -0.398322 -0.244483
-0.339593 0.457342 0.209539
0.363770 0.471027 -0.265340
0.668222 0.357316 0.055239
0.537863 0.352268 -0.277512
-0.350627 0.720262 -0.003183
-0.589515 0.337125 0.034396
0.173108 0.179496 0.093886
-0.614003 0.298597 0.031556
-0.379895 0.139791 -0.206792
-0.283513 -0.163681 -0.211671
-0.316210 0.229473 -0.212285
0.077777 0.489789 0.100908
-0.384872 0.392606 0.145979
-0.337570 0.464942 0.170178
0.655400 -0.086455 -0.282925
-0.354238 0.428667 0.258349
0.082890 0.051812 0.307233
-0.514120 0.475171 -0.130980
0.666257 -0.145326 -0.283282
-0.922569 -0.186183 -0.010526
0.543316 0.313901 0.064978
0.359605 -0.090696 0.081965
-0.644968 -0.266051 0.158928
-0.612736 0.300007 0.036937
0.382940 0.143603 -0.264222
0.331895 -0.588759 0.087945
0.263604 -0.327705 -0.251557
-0.377013 0.577347 0.132170
0.307287 0.003066 -0.257431
-0.439417 0.260938 -0.203260
-0.059314 0.519847 0.183133
-0.295862 0.807788 -0.218339
-0.172729 0.378745 -0.224249
0.505297 0.191440 -0.273804
-0.055149 0.040693 0.190080
-0.070430 -0.288780 -0.226727
-0.678585 -0.261621 -0.181177
0.427210 -0.591839 -0.191274
0.706806 -0.174860 0.046662
-0.207327 -0.678513 0.129222
0.822742 0.036036 -0.195289
-0.280023 -0.085194 0.130052
-0.467762 -0.059711 0.143980
0.186890 0.451704 0.296280
-0.263620 0.089490 -0.215148
0.096287 0.504743 0.230080
-0.275344 0.464069 0.330965
0.021583 0.188690 -0.237384
0.130976 -0.031815 -0.243891
-0.250706 0.603230 0.165728
-0.348803 0.738172 -0.137812
-0.048112 0.039907 0.279095
0.051552 0.433630 0.231420
-0.221805 0.258637 -0.219617
-0.306647 0.193064 0.335440
-0.607316 0.323413 -0.095825
-0.312854 0.777345 0.022245
-0.270904 0.837165 0.082532
-0.297979 0.637250 -0.216846
-0.076248 0.481942 0.282127
-0.267435 -0.290049 -0.211893
0.357438 -0.485279 -0.257386
0.147684 -0.707752 -0.239863
-0.484636 -0.162297 0.146052
-0.173162 0.061127 0.120867
-0.348759 0.429114 0.332254
-0.337840 0.462010 0.192623
0.220378 -0.326682 -0.248313
-0.608673 0.313442 -0.025738
0.368268 0.034833 -0.262268
0.162197 -0.605490 -0.241755
0.265398 0.269699 -0.256364
-0.354373 0.732541 -0.166538
-0.866918 -0.097543 -0.013770
0.225209 0.335477 0.129041
-0.917053 -0.195972 0.155681
-0.307259 0.022458 0.131260
0.544786 -0.307997 0.069730
0.201099 0.280335 0.090991
-0.482390 0.231047 0.207548
0.505417 0.431069 0.066913
0.564053 -0.022484 0.066048
-0.308807 -0.060697 0.132027
0.058576 0.447996 0.202525
-0.155573 0.414141 -0.225817
0.545259 0.050033 -0.275705
0.030618 -0.591319 0.316195
-0.460546 -0.000762 0.142976
-0.281820 0.825139 0.035106
0.063224 -0.663393 0.314305
-0.339457 0.257675 -0.210756
0.758264 0.258551 0.049236
-0.544029 -0.176492 0.150632
-0.428930 -0.069367 0.141133
-0.715578 0.156241 -0.136724
-0.048881 0.537098 0.107793
0.906205 0.220999 0.038398
0.248889 -0.897556 0.013571
0.246727 0.487817 0.091883
-0.616769 -0.161422 0.155988
0.639546 0.037147 0.073937
-0.011826 0.545356 0.104941
0.157652 -0.079737 0.274969
-0.674674 -0.160548 -0.182262
-0.131500 -0.062275 0.118697
0.091347 -0.695393 -0.235720
0.148342 -0.112350 -0.244568
-0.869737 -0.261034 0.173940
-0.706251 -0.208161 -0.179513
-0.103536 0.383355 -0.229491
-0.407206 -0.258876 -0.201619
-0.149158 -0.095527 -0.222314
-0.359229 -0.361188 -0.204429
-0.342446 0.652159 -0.213616
-0.524909 0.420988 -0.198079
-0.640961 0.256589 0.024796
0.387101 -0.626627 0.084087
0.024660 0.721726 0.100816
-0.944291 -0.214614 -0.064558
0.264555 -0.259718 -0.252161
0.164227 0.358768 0.298712
-0.828508 -0.055540 0.155917
-0.297216 0.133855 0.260335
0.125726 -0.604754 0.309144
0.285293 -0.598561 0.152056
0.362220 0.065109 -0.262050
-0.325266 -0.571405 0.137259
-0.477789 0.093762 0.143534
0.069463 0.469945 -0.243186
-0.279564 -0.228590 0.308779
0.556156 -0.297809 0.068795
-0.525733 0.148433 0.146714
-0.583072 -0.016256 0.152317
-0.436249 0.603698 -0.175825
0.102031 -0.428309 -0.238613
0.833203 0.190023 -0.298466
-0.400794 0.630801 0.085400
0.215105 -0.710830 -0.244912
-0.337417 0.748355 -0.067179
0.837445 0.042540 -0.044504
-0.349674 -0.324103 0.168000
-0.352925 0.653466 -0.212838
0.019434 0.699059 0.101386
0.003509 -0.188947 0.109529
0.117945 -0.734918 0.105187
0.025337 -0.444589 -0.232714
-0.622990 0.099299 -0.188183
0.609351 0.205298 0.180753
-0.363870 -0.363276 0.317301
-0.546073 0.173435 0.148049
-0.086935 -0.557431 -0.223384
0.213970 -0.868719 -0.243592
0.484249 0.236309 0.070029
-0.603187 0.312198 0.063446
0.529820 0.348355 -0.276876
-0.245773 -0.116317 -0.214881
-0.364067 0.685351 0.118658
0.466343 0.003343 0.278758
0.025070 0.436394 0.103016
-0.225381 0.781323 0.119165
0.175072 0.165560 -0.248753
0.477680 0.261060 0.070330
0.376404 -0.665975 -0.249172
-0.697290 -0.049856 -0.181426
0.239167 -0.868392 0.097109
0.583303 -0.357049 -0.076363
-0.417666 0.616618 -0.027380
-0.172665 -0.461120 0.330473
0.314369 0.191116 -0.259434
-0.276194 -0.103092 0.129904
-0.277497 -0.282226 -0.211197
-0.135802 -0.442811 0.327556
-0.254774 0.214664 0.139455
0.622152 -0.288362 -0.139669
0.265682 0.401599 0.290743
0.414784 -0.389981 0.080154
0.023270 0.278188 -0.238211
0.237917 -0.887420 -0.233344
-0.601982 -0.352478 -0.186231
-0.489839 -0.412987 0.148404
0.244917 -0.530072 0.094031
0.671758 0.268833 0.055665
0.216675 0.310950 0.227562
-0.200898 0.520821 0.324919
-0.915158 -0.200803 0.178748
0.850108 0.207051 -0.299872
-0.332013 -0.374983 0.341790
0.166992 -0.163750 0.097030
0.264892 -0.611190 0.298722
0.497290 0.004977 -0.271743
-0.137464 0.360425 0.115841
-0.022032 -0.105782 0.185495
-0.123707 0.422736 0.137996
0.011291 -0.074000 0.313604
0.408497 -0.467680 -0.261365
-0.351983 -0.202866 -0.206212
-0.613498 0.300116 0.025115
0.212878 -0.375763 -0.247365
-0.658727 0.215799 0.137826
0.515557 -0.460053 -0.116357
0.010714 0.081722 -0.235730
-0.148805 0.014816 0.119397
-0.560530 -0.377007 0.153442
0.233151 0.404740 -0.254993
0.576356 -0.093142 -0.276925
0.030482 -0.022373 -0.236403
0.209817 -0.730005 0.257114
-0.486698 -0.412145 0.148161
0.315177 -0.491435 -0.254158
-0.341298 -0.328058 0.322583
-0.094158 -0.490031 -0.223367
-0.833141 -0.043890 -0.014417
0.017734 0.636181 0.307566
-0.416783 0.004595 -0.202959
0.106846 -0.226570 0.102047
0.475261 -0.537916 0.008637
0.374185 -0.121995 -0.261487
-0.331125 -0.384066 -0.206365
0.218550 -0.444159 -0.247256
0.313312 0.254799 -0.259853
-0.334084 -0.044630 0.133803
0.258283 -0.883345 0.019763
0.392393 -0.334562 -0.261195
-0.394102 0.674034 -0.207010
-0.209185 0.358363 0.326813
0.224132 0.512913 0.290900
0.504604 0.171592 -0.273596
-0.006355 -0.002567 0.314373
-0.662746 0.116788 0.157272
0.408521 -0.646343 0.031581
0.319356 0.270440 0.082170
0.080584 0.154242 0.101045
0.247542 0.145398 0.294111
-0.195990 -0.444586 0.332099
-0.008529 -0.403911 -0.230484
-0.654552 0.241237 -0.030861
0.706639 0.163444 -0.288735
0.057263 -0.155359 -0.237378
0.464433 -0.492493 -0.265380
-0.268985 -0.498752 0.132456
0.099927 -0.649240 0.311433
0.512027 -0.457504 -0.189395
0.628278 0.355074 0.058263
0.417004 0.112798 0.281615
-0.673015 0.225266 -0.150242
-0.600775 0.304496 0.151141
-0.569070 -0.154043 0.152341
-0.707797 0.152941 0.003518
-0.319521 0.491493 0.188810
-0.392544 0.656371 -0.026502
-0.236678 0.889603 0.099160
0.649950 -0.231147 -0.257284
0.757052 0.011219 0.051262
0.188937 -0.366296 -0.245637
0.059121 0.419116 0.306149
-0.012772 0.181857 -0.234746
-0.246412 0.837323 0.120309
0.507136 0.010616 0.275632
0.291618 -0.057650 0.086823
0.010598 -0.112860 0.234789
-0.209663 0.355084 0.326875
-0.238078 -0.134299 0.127280
-0.520826 0.462753 -0.115020
-0.213336 0.229268 0.122575
0.442294 0.128315 0.279590
0.206810 -0.906094 -0.242761
0.180332 0.446282 0.296816
-0.051186 -0.644180 0.117204
0.870742 0.094794 -0.039434
-0.304872 0.504461 0.280882
-0.204119 0.675773 0.177881
0.263137 -0.047151 0.294444
-0.239265 0.610157 0.266330
0.807986 0.216522 -0.296776
0.491908 -0.073381 0.071875
-0.444285 -0.002091 -0.200837
-0.081029 -0.056468 -0.227746
0.038803 -0.082667 -0.236558
-0.474141 0.086939 0.143313
0.132748 -0.582370 0.308440
-0.630249 -0.155114 -0.185647
0.167007 -0.399735 0.098874
0.520748 -0.472350 0.067719
-0.378839 -0.007122 -0.205722
0.569444 -0.389152 0.014360
-0.706352 -0.275798 -0.178977
-0.786977 -0.331770 -0.169615
0.667163 0.306081 -0.286880
0.001654 -0.289590 0.110455
-0.594252 -0.227274 0.154808
0.223172 -0.942213 0.048182
-0.498552 0.498295 -0.116896
0.345416 -0.647637 -0.255212
-0.614402 -0.031063 0.154790
-0.603518 -0.388593 0.156767
-0.301119 -0.323131 -0.209099
-0.265492 0.567420 0.276480
-0.199545 -0.074188 -0.218689
0.716264 0.312512 -0.290625
-0.410389 0.621234 0.034732
0.050295 -0.336358 -0.235439
-0.152976 0.073724 0.119250
-0.507288 0.353156 -0.198874
-0.853058 -0.081637 0.040742
0.148488 -0.261899 -0.243410
-0.141562 0.369514 0.116078
0.036029 0.051931 -0.237402
0.282421 0.515491 0.083033
-0.237781 0.740282 -0.222181
-0.434025 0.277852 -0.203798
-0.050127 0.521885 0.295515
0.678033 -0.214587 -0.006371
-0.432441 0.295295 0.341891
0.825048 0.025009 -0.063637
-0.242721 0.096375 -0.216774
-0.402692 0.091730 -0.204700
-0.365490 0.212833 0.339713
0.574271 0.231060 -0.279303
0.085377 -0.054985 0.307881
-0.037568 0.667098 -0.236674
-0.659149 -0.102730 0.158718
-0.139566 -0.242935 -0.221883
0.048942 -0.429493 0.107991
0.212928 -0.603273 0.302570
0.481102 0.314307 -0.272944
0.520236 0.367274 0.066297
0.837408 0.184855 0.043857
-0.541389 0.438387 -0.189010
0.316789 -0.770753 -0.157614
-0.207703 -0.643220 -0.213626
0.403640 0.281769 -0.266861
-0.703326 0.165758 -0.047813
0.270752 -0.692399 -0.249243
0.138894 0.228149 -0.246520
0.368008 -0.710910 0.034282
-0.112614 -0.562572 0.326748
0.286674 0.034808 0.292032
-0.282579 0.241985 -0.214914
0.422065 -0.624218 0.025839
-0.778014 -0.112454 0.167738
-0.177204 0.138290 -0.222032
0.739200 -0.078689 0.053308
0.528525 -0.263007 -0.271998
-0.469383 -0.268834 -0.196863
-0.887245 -0.121367 -0.089254
-0.576123 0.350741 -0.193676
0.394762 0.104445 0.283354
-0.729774 0.104303 0.127019
-0.624169 -0.272326 0.157412
0.443218 0.376504 -0.270579
0.527720 0.311083 0.066173
-0.300239 0.810898 -0.099161
-0.315640 -0.466765 0.135716
-0.376927 0.073889 0.136959
-0.275101 0.300944 -0.215937
-0.370848 -0.199095 0.137777
0.793480 -0.006098 -0.233691
0.413708 -0.523768 0.081281
-0.786835 -0.192300 0.169026
0.458677 -0.540280 -0.206012
0.191743 0.406598 -0.251892
-0.083164 -0.378246 -0.225069
-0.207130 0.669841 0.188241
-0.335337 0.051075 -0.209451
0.718209 0.054290 0.053848
0.075998 -0.134988 0.103652
0.162270 -0.248547 0.098049
-0.678221 -0.217516 0.161050
0.502930 0.165925 0.274734
-0.357986 -0.347910 0.263232
0.201169 -0.209050 0.094813
-0.002847 0.189735 -0.235554
-0.396209 -0.396920 0.159027
-0.017327 -0.090534 0.291792
-0.054605 0.042568 0.202711
-0.279738 -0.171225 -0.211896
0.390893 -0.260623 0.080940
-0.553026 -0.130823 -0.191648
-0.068289 0.661219 0.313843
-0.298079 0.527560 -0.215980
-0.022236 -0.113614 0.159612
0.159431 0.540114 -0.250505
0.669337 -0.212796 0.059614
-0.089428 0.378261 0.112087
-0.237940 -0.677165 -0.211085
-0.564285 0.401043 -0.179836
-0.297514 0.792294 0.106380
0.735866 0.140419 -0.290754
0.116062 -0.068470 0.305677
0.516122 -0.301869 0.071839
0.104618 -0.533575 0.310175
-0.818301 -0.099720 0.170670
-0.765293 0.075159 -0.116819
0.807292 0.020381 -0.274665
-0.476352 -0.035402 0.144436
0.540306 -0.435040 0.011373
-0.387505 -0.100319 -0.204341
-0.095698 0.456269 0.235688
-0.124147 0.401816 0.319298
0.406102 0.360110 -0.267658
-0.606383 -0.387966 0.156977
0.430969 -0.588563 -0.167194
0.178598 0.062150 0.299950
0.547919 -0.027480 0.067301
0.502470 -0.297893 0.072835
-0.442411 0.262626 -0.203048
0.587631 0.248149 0.062157
0.103217 0.360867 0.303286
-0.309924 0.210968 0.335546
-0.032748 -0.079106 0.125509
0.226533 -0.137563 0.092345
0.300463 0.462414 0.242239
-0.204864 0.708389 -0.224408
-0.228140 0.399557 -0.220242
0.744260 0.108761 0.051461
0.002400 0.410156 0.104927
-0.508311 0.385292 0.143551
-0.165984 0.531341 0.322210
-0.430144 0.592047 0.015452
0.097405 -0.557312 -0.237256
-0.119754 -0.533494 0.327058
-0.415882 0.606397 0.089629
0.132575 0.121941 0.302946
-0.038920 0.200707 -0.232925
0.582234 -0.353083 -0.127126
0.898900 0.150812 -0.141198
0.350158 -0.721286 -0.126547
-0.420841 0.344236 0.137290
-0.125828 0.624417 -0.229699
0.128226 -0.810165 -0.237598
0.458751 0.093684 -0.269537
-0.346854 -0.333511 0.292443
-0.701948 0.177097 -0.129870
0.420927 -0.242468 0.078538
0.555145 -0.414681 0.039885
-0.144990 -0.008480 -0.223308
-0.733030 0.119033 -0.051341
-0.169619 0.770475 -0.227546
-0.033686 -0.021670 0.283705
0.133558 0.183207 0.096833
-0.349785 0.393297 -0.211040
-0.325669 0.266296 -0.211861
-0.269191 0.375159 0.331197
0.345149 -0.523809 0.086440
0.330211 0.210401 0.081823
-0.705421 0.069852 -0.181750
0.165237 -0.077712 0.243057
0.421608 0.031157 -0.266253
-0.686715 -0.024680 -0.182418
-0.252437 -0.333048 -0.212685
0.259885 0.296267 -0.256157
0.138694 0.400578 0.300306
-0.376865 -0.382348 0.303484
0.760222 0.202548 0.049527
-0.729931 0.135835 -0.157903
-0.772754 0.041310 -0.176460
0.260789 -0.412206 0.091915
0.039872 -0.669559 -0.232049
0.386215 -0.046079 -0.262986
-0.948668 -0.229773 -0.157043
0.060546 -0.008231 -0.238776
-0.772029 0.044328 0.063789
-0.116047 -0.479176 -0.221805
0.678896 0.112614 0.056350
0.104616 -0.124839 -0.241180
0.249567 0.357994 0.273570
-0.236502 -0.208711 0.127743
-0.036475 0.563704 0.114745
0.394906 0.336649 0.075967
0.227303 0.418881 0.293496
-0.700421 0.170433 -0.048418
-0.496305 0.262600 -0.198992
-0.286760 -0.091954 -0.211988
-0.560719 -0.031506 -0.191846
-0.142976 0.822554 -0.229958
-0.565086 0.117479 -0.192682
0.543585 -0.421080 -0.067159
-0.143345 0.387622 0.173518
0.061388 -0.442268 0.312714
-0.119872 -0.376995 0.325843
-0.189363 0.222975 0.120821
0.459675 0.342378 0.071049
-0.478565 -0.412087 0.147548
-0.510152 0.441337 0.143251
-0.447785 0.576588 -0.096835
0.076119 -0.708924 -0.234469
-0.114641 -0.317914 0.119428
-0.183119 -0.282237 -0.218298
0.077203 -0.096545 0.112146
-0.303806 0.514279 0.208027
-0.027461 0.004293 0.315908
-0.081254 -0.262471 -0.226118
0.139614 0.060586 0.302896
-0.427707 0.588916 0.078169
0.253774 0.042787 0.294445
0.236983 0.452891 -0.255658
0.718723 -0.142178 -0.076867
0.142553 -0.283442 -0.242795
-0.207574 -0.549800 -0.214366
-0.321124 0.199580 0.336478
0.359440 0.454948 -0.264889
-0.769242 -0.037872 0.166495
0.013170 -0.481895 -0.231507
0.273980 -0.774262 -0.248846
0.672974 -0.228833 0.049399
-0.348689 0.745621 -0.202973
-0.253447 -0.304957 0.335331
0.208829 -0.866531 -0.243222
-0.271004 0.843573 0.023654
-0.299076 -0.110660 -0.210915
0.269268 0.277189 -0.256714
0.366557 -0.117387 -0.260949
0.652081 0.016341 0.059120
0.103076 -0.054818 0.306548
-0.487094 0.436290 -0.201044
-0.722079 -0.147177 0.163800
-0.317478 -0.238224 -0.208532
-0.079053 0.681387 -0.233664
-0.500118 0.478004 0.042736
-0.823905 -0.229380 0.172105
0.057018 0.090546 0.308877
-0.363690 0.070569 -0.207470
0.271350 -0.619011 0.137113
0.327515 -0.029030 -0.258702
0.087256 -0.095162 0.209494
-0.680058 -0.257421 -0.181099
-0.342569 0.092760 -0.209233
-0.233092 -0.436131 -0.213335
-0.259327 -0.215931 -0.213082
0.473199 -0.538618 -0.014379
0.007286 0.642309 0.173269
-0.018563 0.292676 0.107423
-0.030425 0.286317 -0.234234
-0.750253 0.099784 -0.178610
0.199086 -0.279835 -0.247077
0.273492 0.408105 0.084545
0.629005 -0.097575 0.061748
0.616190 -0.300674 -0.114065
0.412410 -0.285324 -0.263086
-0.762559 -0.188460 0.167169
0.574809 -0.245359 0.066981
0.527663 -0.394562 0.071696
-0.346387 0.448940 0.188239
-0.171771 0.810337 -0.227696
-0.437720 0.294736 0.271829
-0.430189 0.589412 0.038430
0.652921 0.007333 -0.283472
-0.564214 -0.126824 0.151762
0.084014 -0.714154 0.107578
-0.598366 0.347952 -0.188536
0.369867 -0.314833 0.082946
-0.466638 0.345104 0.140730
-0.399548 -0.172606 -0.202870
-0.299556 -0.603413 -0.207025
0.220037 0.421095 -0.254134
0.477607 -0.171030 0.073714
0.572525 0.347108 0.062520
-0.165107 -0.266786 0.122825
-0.937981 -0.203318 -0.076083
-0.320597 0.092683 0.296930
0.511594 0.126591 0.274389
-0.464627 0.556469 -0.155992
0.163218 -0.416901 0.099294
0.147284 -0.654798 -0.240247
0.591323 -0.326115 -0.239628
-0.631825 0.030819 -0.186983
0.036265 0.415016 0.180908
0.249742 0.622604 -0.257945
0.700065 -0.047093 -0.286594
-0.407598 -0.205756 0.140595
-0.105071 0.123780 0.115254
0.104340 0.046773 -0.242501
0.348539 -0.381592 0.085073
0.695638 -0.102317 0.056771
-0.122272 0.380900 0.114537
0.239030 0.635148 -0.252366
0.154746 -0.180851 -0.244514
-0.332400 0.742166 0.059659
0.105439 0.539496 0.096163
-0.494428 0.401223 0.142382
0.375717 0.266357 0.077961
0.012100 0.630999 0.102470
-0.597328 -0.309839 0.155685
0.658106 -0.221705 -0.225943
-0.874646 -0.098551 -0.114641
-0.130447 -0.664795 0.123330
-0.148405 -0.698758 -0.217653
0.096613 0.177381 -0.242941
0.906983 0.175821 -0.250466
-0.313624 0.789382 -0.096620
0.348750 -0.729741 -0.070767
-0.417374 0.429394 -0.206236
0.130677 -0.627693 0.308950
0.559222 -0.120080 0.067174
0.170286 0.304521 0.291202
-0.381139 -0.395172 0.345645
0.316505 -0.043647 0.285103
-0.395137 -0.127941 -0.203551
-0.265453 0.046281 0.127928
-0.280286 0.549680 0.225139
0.218468 -0.438669 0.095306
-0.158778 -0.022435 -0.222161
-0.344230 0.448906 0.219230
-0.303624 -0.190874 -0.209945
-0.544701 0.063068 -0.193791
0.301732 -0.436374 -0.253577
0.441551 0.100479 0.279864
-0.315461 -0.507392 0.136020
-0.002036 0.226214 -0.235900
0.248089 -0.902583 0.047254
-0.864787 -0.202932 0.174975
-0.142176 0.383188 0.321577
0.561463 0.044472 0.271279
0.913715 0.213379 -0.235146
-0.445167 -0.155903 -0.199568
0.184898 0.631878 0.089461
-0.307850 0.503649 0.245810
0.697078 0.116416 -0.287648
-0.809793 -0.007450 -0.009081
0.361344 0.434406 0.077728
0.559853 -0.211485 0.067842
-0.231275 0.760081 -0.222825
-0.379270 0.365232 0.339558
0.743966 0.041658 0.052008
0.888244 0.113697 0.039994
0.301108 0.136969 -0.258013
0.523406 -0.403598 0.072087
-0.501457 0.469807 0.097187
0.272317 0.461298 0.289777
0.556515 0.012312 0.147009
-0.225809 0.121362 -0.218242
0.763789 0.031807 -0.292006
0.082441 -0.370915 0.105012
-0.449180 -0.462758 -0.196866
-0.562908 0.384010 -0.007540
0.038861 0.414456 0.222851
0.200429 0.294094 0.147651
-0.657198 -0.159517 -0.183585
-0.315875 0.481645 0.328963
-0.272141 0.785957 -0.219953
0.118211 0.421239 0.301686
-0.025587 -0.651193 -0.227267
0.095001 0.277968 -0.243607
-0.401322 0.505200 -0.208037
-0.426906 0.552455 -0.206481
-0.186441 0.698069 0.229408
-0.053026 0.726017 -0.235972
-0.641382 -0.123092 -0.185060
0.801306 -0.014297 -0.048890
0.132793 -0.797191 -0.238043
-0.670233 0.218735 -0.052138
0.038339 0.186440 -0.238627
-0.356611 0.698851 0.103663
-0.487843 0.494048 0.073472
-0.232985 0.475529 0.327688
0.613705 0.025870 0.090121
0.323096 0.086075 -0.259270
0.283045 0.428754 0.115299
0.342932 -0.697450 0.087965
-0.322564 0.715676 0.126991
-0.151979 0.507921 0.321339
-0.106302 -0.156572 -0.225061
0.010393 0.645197 0.261214
0.002533 -0.828527 -0.227996
-0.614400 -0.176682 -0.186671
-0.791981 0.030052 -0.091979
0.472998 0.429846 0.069362
-0.224821 -0.341656 0.333464
-0.563470 -0.064749 0.151221
-0.230082 0.084613 0.124967
0.140178 0.274108 -0.246976
-0.584381 -0.123854 0.153257
0.136992 0.209535 -0.246231
0.789925 0.126657 0.047885
-0.199173 -0.383043 0.331858
0.279563 -0.190316 -0.253833
0.319343 0.491772 -0.262160
-0.318750 -0.099698 -0.209520
-0.204559 -0.008357 0.123773
-0.270385 0.746703 0.122822
0.280796 0.228369 0.085400
-0.884028 -0.270714 -0.165068
-0.938926 -0.201873 -0.102484
0.569358 -0.369397 -0.163980
-0.282642 -0.089897 -0.212314
0.500456 -0.212552 0.072320
-0.029047 -0.108064 -0.231254
-0.004129 -0.364023 -0.231127
-0.153544 0.390403 0.322376
0.059519 0.076205 -0.239359
-0.805143 -0.003799 0.024316
0.125260 -0.433653 -0.240319
0.499182 -0.342070 0.073428
0.293655 0.468222 0.082557
0.740476 -0.109584 -0.059709
0.201655 -0.678679 -0.244151
-0.371364 0.697047 -0.089962
0.202384 -0.588045 0.303245
-0.115781 0.286850 -0.227815
0.022539 -0.110028 0.222765
-0.000003 -0.556812 0.318229
-0.623710 -0.211622 0.156902
0.279016 -0.710312 -0.249725
0.340718 -0.038086 0.280231
-0.392995 0.639996 0.113881
0.247694 -0.662353 0.189256
0.239795 0.538026 -0.256536
-0.019000 0.034962 -0.233128
-0.330413 -0.314187 -0.206965
-0.361265 -0.002352 -0.207082
-0.058192 0.510527 0.314262
0.134208 -0.596980 -0.239715
