0.549126 -0.394466 0.108121
0.917509 0.214954 0.171775
-0.498006 0.007001 0.264474
0.235472 0.437719 0.308845
0.331299 0.504274 0.216883
0.029297 0.334687 0.237928
0.147023 -0.734951 -0.324666
0.102363 -0.431114 -0.286785
-0.121290 -0.317816 -0.295280
-0.321586 0.294320 0.274129
-0.612432 0.321752 0.000596
-0.708898 0.159685 -0.079224
-0.108696 0.531965 0.172698
-0.561258 0.400587 -0.138707
0.126860 -0.880219 -0.051878
0.370829 -0.698914 -0.164115
0.539657 -0.144751 0.156513
0.320722 -0.783589 -0.218131
0.402341 -0.382021 -0.247094
-0.263004 0.269972 0.221254
-0.233950 0.326949 0.130157
0.837687 0.082335 0.143497
0.682581 -0.179946 -0.028003
0.338029 0.566985 0.168286
-0.919478 -0.189364 -0.132997
-0.434733 0.325956 0.316278
0.225182 0.435057 0.351728
0.772020 -0.030200 0.032893
-0.908472 -0.200181 -0.017742
-0.503779 0.244388 0.179777
-0.201949 -0.672961 -0.096908
-0.463311 -0.489652 -0.222589
0.544948 -0.407845 -0.057142
-0.481191 0.284031 0.241552
0.534390 -0.152669 0.175852
0.058319 0.727168 0.208062
-0.274932 0.095720 0.093135
0.068774 0.740645 0.112332
-0.681528 0.200698 -0.183038
-0.470734 -0.097511 0.148719
-0.017439 -0.123835 0.298576
-0.149989 0.085200 0.105308
0.708146 0.348306 0.148204
-0.141117 0.165648 -0.229405
0.087321 -0.791133 -0.339098
0.602189 0.229561 0.247729
0.566988 -0.222469 -0.206647
-0.508469 0.486646 -0.161918
-0.594715 -0.254891 0.217047
-0.011652 0.390773 -0.183573
-0.095055 0.833286 -0.130408
0.215749 0.643572 0.153909
0.750368 -0.069852 -0.068377
0.255505 -0.893600 -0.283396
-0.094527 0.101516 -0.233339
-0.734617 -0.033755 0.024679
-0.377818 0.714148 0.149813
0.542865 0.481506 -0.014939
0.346685 -0.179771 0.330495
-0.674008 0.210291 -0.254180
-0.811833 -0.277814 -0.232331
0.284485 -0.193466 0.321770
0.691971 -0.167839 -0.113564
-0.694980 -0.228068 0.209865
0.843355 0.093213 0.182705
-0.085589 -0.137536 0.289201
0.153382 0.208045 -0.191255
-0.041586 -0.777968 -0.055940
-0.463520 -0.491019 -0.215359
0.109515 0.263981 0.340791
-0.668601 0.227363 -0.046459
-0.797734 0.012680 -0.095643
0.262842 0.660067 -0.063233
0.281896 -0.847988 -0.229136
-0.294923 -0.215387 -0.299839
-0.136938 -0.413156 -0.310408
-0.335596 -0.402474 -0.330614
-0.531268 0.094883 -0.281999
-0.228375 -0.624486 -0.254585
-0.911057 -0.181142 -0.276796
0.757573 0.227821 0.224558
0.558320 -0.379151 0.112415
0.002508 0.790971 0.061825
0.477103 -0.242440 0.293167
0.787475 -0.007271 -0.031572
-0.608833 -0.395884 -0.252401
0.181624 -0.594323 -0.301093
-0.373069 0.320885 0.295582
-0.608879 0.321149 -0.163675
-0.103388 -0.740851 -0.055500
-0.338201 0.207373 0.310138
-0.210803 -0.153780 -0.281976
0.699220 0.366688 0.085214
0.219090 0.671804 0.007477
-0.324284 0.059245 -0.264396
0.693570 0.004949 -0.160807
-0.012108 0.305524 -0.195620
0.539725 -0.415596 -0.035441
0.572776 0.480754 -0.098491
-0.333508 0.127324 0.116964
0.109820 0.305918 -0.182241
0.865236 0.285247 -0.004400
0.271821 0.645145 -0.017160
0.505187 0.391109 0.219959
-0.400949 0.672852 0.068716
-0.543563 0.181003 0.234727
-0.499117 -0.468007 -0.223013
-0.561640 -0.247006 0.155699
-0.369186 0.073847 0.251915
0.066424 0.766846 -0.007678
0.448184 -0.305765 -0.231352
-0.297306 0.715742 -0.169053
0.055745 -0.566805 -0.310976
0.859830 0.108600 -0.116432
-0.268905 -0.595312 -0.277698
0.102557 -0.061856 -0.234795
0.800856 0.337936 -0.071843
0.111712 -0.344737 0.281600
0.106070 0.580187 0.202954
0.550508 0.196950 0.405788
0.207850 0.475897 0.204507
-0.871109 -0.115009 -0.268731
0.033814 0.702967 0.212338
-0.058029 -0.762237 -0.084175
0.441502 0.270461 -0.150985
-0.019705 -0.789934 -0.061783
0.332370 -0.687848 -0.297783
-0.659920 0.242469 0.071717
-0.001512 -0.769527 -0.213628
-0.718080 0.149100 0.036366
0.161559 -0.888048 -0.115121
0.178051 -0.068135 0.119576
-0.033520 0.022794 0.263173
-0.918286 -0.187466 -0.134679
-0.552206 -0.284085 0.009381
-0.439415 -0.044950 0.173186
-0.473510 0.547290 -0.084368
-0.512541 0.488782 0.063130
-0.517384 0.468560 -0.227891
0.681005 0.171977 0.296789
-0.218012 0.898373 0.184622
-0.775655 -0.205699 0.124685
0.120252 -0.321857 -0.269453
-0.083960 -0.214220 0.144200
0.477448 -0.055320 0.154097
-0.024408 -0.461644 0.140256
-0.133883 -0.085640 0.279102
-0.279072 0.224100 0.297420
-0.368748 0.720799 -0.061177
0.091704 -0.656203 -0.319629
0.193885 -0.086479 -0.228280
0.609782 -0.005655 -0.171456
-0.000706 0.777556 0.136147
-0.448496 0.593330 0.038522
0.089013 0.289502 0.276990
-0.116608 -0.506514 -0.321326
0.292119 -0.765047 -0.313046
-0.504647 0.501532 0.056648
0.015689 -0.517245 0.246828
0.866832 0.124505 -0.005256
-0.897944 -0.161853 -0.335700
0.008866 0.032451 0.273203
-0.110162 -0.156224 -0.271322
-0.558518 0.157168 0.255165
-0.298751 0.495599 -0.200194
0.757991 0.332804 0.077957
-0.665231 0.231094 -0.092816
0.438583 -0.582286 -0.036849
0.675195 -0.140907 -0.183343
-0.622884 -0.160997 0.227184
0.297836 -0.435735 -0.266074
-0.029166 -0.458359 0.168083
0.571269 -0.200932 -0.203148
0.055188 0.318021 -0.186508
-0.413547 -0.510009 -0.269087
0.291247 0.152997 0.348410
0.243430 0.019141 0.139003
-0.419469 0.586006 -0.200662
0.374702 0.105401 -0.181515
-0.378679 0.098157 -0.264864
0.379693 -0.057083 0.323477
0.150536 0.622072 0.213708
-0.341254 0.567133 -0.194771
-0.642544 -0.402624 -0.017174
0.451874 0.112229 -0.172121
0.032738 0.272657 0.151659
0.628857 -0.268598 -0.031564
-0.371675 0.722881 0.114503
0.012588 -0.810546 -0.056121
-0.742495 0.099030 -0.214163
0.683870 0.080736 -0.151201
0.789609 -0.006668 -0.105663
0.582107 0.418956 -0.114721
-0.534920 0.448003 -0.036343
0.020960 0.689496 -0.137967
0.840482 0.283402 0.076695
-0.319611 -0.006307 -0.273111
0.279590 0.191806 0.194478
0.087468 0.703492 0.218275
0.369627 -0.029105 0.173159
0.767140 -0.040132 -0.015257
0.284731 0.503450 -0.135326
-0.419843 0.435402 0.125106
0.160316 -0.352634 -0.269407
0.833404 0.075439 0.147602
0.022177 0.035407 0.277025
0.384389 0.114326 0.264135
-0.390978 0.032008 0.100849
0.431579 0.535109 -0.114823
0.319924 0.171830 -0.178152
0.377706 -0.691420 -0.261722
-0.117533 0.085545 0.108903
-0.096967 -0.182061 0.073488
-0.295102 0.851864 0.186436
-0.728519 0.089779 0.042731
-0.253559 0.188633 0.108547
-0.083663 0.828910 0.129321
0.526683 0.078042 -0.168757
0.389325 -0.661728 0.006697
-0.740338 0.104805 -0.157666
-0.025889 -0.766036 -0.159467
-0.562933 -0.250449 0.122296
-0.243624 0.829684 0.199854
0.697121 0.310301 -0.117444
0.372958 0.348544 0.339843
0.271366 -0.211129 0.208685
0.505159 -0.196577 0.284007
-0.531638 0.455470 0.016092
-0.237854 0.458763 -0.198723
0.053345 -0.341955 0.275613
-0.335028 0.769820 0.181440
0.275619 0.165453 0.333656
0.510717 0.020226 0.351508
-0.357485 0.743406 0.041916
-0.330260 0.029815 0.077813
0.392805 -0.249013 -0.229417
-0.049052 0.012146 0.314259
-0.572388 -0.429394 -0.196389
-0.285544 0.864825 0.115574
0.094967 0.217499 0.150696
0.641631 -0.250395 -0.103922
-0.465416 0.421964 0.118234
0.622781 -0.001534 0.316047
-0.467270 -0.089310 0.212155
0.804051 0.016509 -0.121382
0.268122 0.665168 -0.103326
-0.403820 -0.515777 -0.269517
-0.640876 0.030238 -0.303075
-0.573192 0.379783 -0.167761
0.884346 0.160957 -0.118003
-0.742781 -0.281989 -0.358154
0.347295 -0.543941 -0.275898
0.310819 0.089537 0.156275
0.127625 -0.453038 0.268097
-0.233466 0.134000 -0.243951
-0.636932 0.271793 -0.243547
0.287529 -0.357686 -0.256216
0.100964 -0.866675 -0.041967
0.354554 -0.369286 0.096480
-0.294622 0.552667 -0.191711
0.136143 -0.772757 -0.331176
0.191108 0.448829 0.384374
-0.868432 -0.103500 -0.088109
0.451627 -0.225761 -0.219717
-0.413657 0.351139 0.267410
-0.087286 0.010165 0.253814
0.648468 0.414607 0.001141
-0.771853 -0.179819 -0.346952
-0.116567 -0.725122 -0.093244
0.233627 0.573407 0.215939
0.346271 -0.732834 0.002265
-0.388211 0.695194 0.103224
-0.092832 -0.036996 -0.252648
0.242900 0.418434 0.380565
-0.370859 0.716670 -0.077725
0.263851 -0.873036 -0.110043
-0.868860 -0.108479 -0.196868
-0.108407 0.608306 -0.163531
0.043110 -0.656061 -0.324919
-0.838677 -0.063429 -0.315847
0.014066 0.173601 0.135677
0.308502 0.402567 0.266159
0.707318 0.136202 0.276822
-0.171830 -0.671388 -0.192322
0.007705 0.488896 -0.167648
0.096115 0.089582 0.132819
0.113249 0.548537 -0.147720
-0.006069 -0.012826 0.315442
0.536702 -0.144447 -0.198975
-0.702108 -0.357904 -0.164397
-0.432337 -0.491198 -0.305393
-0.737020 -0.145198 0.044490
-0.237941 0.407886 0.141111
0.879812 0.151000 0.124773
0.262539 0.000665 -0.208513
0.107204 -0.697536 -0.323752
0.066411 0.103009 0.131463
0.096117 -0.647716 0.212392
0.216884 0.463130 0.239987
-0.086279 -0.736795 -0.125012
-0.036229 0.632651 -0.152217
-0.667140 -0.394506 -0.089104
0.492778 -0.106138 0.231346
0.421901 0.383016 -0.137286
-0.139969 0.415407 -0.194128
-0.162556 0.423620 0.151564
-0.696684 -0.078633 0.047303
-0.509231 0.231881 0.090060
-0.717005 0.097083 0.045018
0.213409 0.397930 -0.157971
0.707463 0.347041 -0.111143
0.353119 -0.051084 0.305928
0.667229 0.363646 0.193203
-0.297306 0.189634 0.184811
-0.538224 0.439712 -0.108802
-0.658163 0.247651 0.032189
-0.438975 0.351399 0.186023
-0.246478 0.757944 0.189445
-0.096883 0.840057 0.113886
0.098334 -0.603867 -0.311538
0.662764 0.065592 0.347899
-0.646207 -0.378417 -0.228027
0.694913 0.295220 0.227196
0.385810 -0.674454 -0.169734
0.361580 -0.274010 0.250175
0.668222 -0.065668 0.173488
-0.217805 0.107326 -0.245993
0.072505 -0.475860 -0.296345
-0.748127 -0.160437 0.122363
0.709987 0.168536 0.228964
0.166799 -0.003605 0.127428
0.322024 0.310145 -0.158456
0.013622 -0.586476 0.082363
0.715876 0.357568 0.080825
0.254074 -0.011916 0.135796
0.053078 0.650810 0.207103
0.482995 0.107749 0.385856
0.240529 -0.020142 -0.213847
0.319856 -0.783715 -0.185028
0.516872 0.354663 -0.130898
0.341773 -0.075587 0.158094
0.438437 -0.005654 -0.190180
0.395730 -0.652836 -0.035543
0.336446 -0.753420 -0.109645
0.000512 -0.044691 0.311677
-0.741465 -0.135402 0.009625
0.125282 0.706337 0.113726
0.615105 0.382618 0.230775
-0.265436 0.286847 0.146636
-0.592795 -0.365200 -0.353475
-0.301557 -0.574750 -0.282075
0.291452 -0.652503 -0.297280
-0.208227 0.164160 0.110057
-0.524355 -0.040591 0.254897
0.253752 0.104590 -0.194847
-0.336072 -0.496931 -0.343960
0.860494 0.259712 0.133064
0.845645 0.092136 0.059274
0.235151 0.493731 0.204892
0.654979 -0.224930 -0.015511
0.474669 -0.099472 0.251862
-0.496369 0.258215 0.220961
-0.382665 0.702058 0.045383
0.029646 0.752758 0.167745
0.278337 -0.110178 -0.222387
-0.292033 -0.278924 -0.308465
0.383006 -0.383666 -0.249439
0.550565 -0.395115 0.031275
0.013366 0.097473 -0.222118
-0.131714 0.525690 0.169299
0.713399 0.030489 0.191958
0.369604 0.478996 0.217511
0.077664 -0.361519 0.275518
0.556728 0.307887 -0.133126
0.413482 0.053692 -0.184555
-0.680649 -0.180990 -0.337150
-0.620976 0.262800 0.078834
0.534668 0.023210 0.267242
0.853475 0.103709 0.025504
-0.057605 0.412185 0.161423
-0.400952 -0.179142 -0.306325
0.328899 -0.769801 -0.210106
0.146469 -0.266122 0.107014
-0.307889 0.075452 0.086681
-0.261391 -0.168736 -0.289609
0.058080 -0.797326 -0.252741
0.581115 -0.010429 0.294724
0.698121 0.289246 -0.120298
-0.400089 -0.539359 -0.009923
0.142091 -0.351646 0.280418
-0.029538 -0.235425 -0.273658
0.537923 -0.085891 0.156403
-0.327333 0.784458 0.184341
0.222760 0.495252 0.203752
0.095063 -0.823542 -0.233613
-0.243033 0.910662 0.198057
-0.443157 0.595962 -0.118324
0.627068 0.187119 -0.142436
0.027151 0.191050 -0.207441
-0.030649 -0.489218 0.229973
-0.376085 0.398151 -0.222359
-0.723803 -0.124324 0.021563
0.371105 0.373434 0.224729
-0.079521 0.217758 0.131665
-0.548794 -0.005574 0.257154
0.595521 0.233517 0.248011
0.167639 -0.011261 -0.220562
-0.382709 0.051947 0.261554
0.532853 -0.121514 -0.196169
-0.227351 0.952086 -0.103610
-0.817453 -0.026716 -0.271431
0.739788 -0.061871 0.181844
-0.083863 -0.306560 -0.289606
0.264213 -0.368880 -0.260339
-0.341371 0.287405 -0.234152
0.626146 -0.263132 -0.205905
-0.468776 -0.098015 0.053806
0.338239 -0.245173 0.320367
-0.468555 0.301343 0.152350
-0.681202 -0.344870 -0.288447
0.485824 0.429607 0.223261
0.079455 0.761763 -0.021057
0.062078 0.388586 0.235172
0.569672 0.000819 -0.174928
0.188238 0.459677 0.340212
-0.010974 0.197209 -0.210741
0.320239 0.074442 0.155180
0.386678 -0.670831 -0.113984
-0.484738 0.530275 -0.046618
-0.558312 0.156289 0.224179
0.617331 -0.292950 -0.168033
-0.279339 -0.065170 0.070010
0.157622 0.718744 -0.040620
0.353693 -0.731856 -0.283973
-0.799594 0.008134 -0.133337
-0.544321 0.179910 0.238688
-0.383125 -0.523937 -0.290329
-0.279510 0.044705 0.085455
0.868202 0.280685 0.009045
0.095169 0.743629 0.020940
0.200329 -0.393986 -0.270854
0.543954 -0.414974 -0.196885
-0.344349 0.116509 0.296243
-0.252878 -0.646435 -0.076882
-0.119064 0.194569 0.124080
0.787171 0.231273 0.228278
-0.899966 -0.159042 -0.179457
-0.049622 0.377198 -0.189633
0.208175 -0.582677 -0.296553
-0.484433 0.381285 -0.236573
-0.511656 0.486050 -0.043480
0.511997 0.505699 -0.042098
0.517762 -0.325509 -0.226528
0.586632 -0.345621 -0.221320
-0.140934 0.160076 0.116836
-0.217442 -0.007038 0.084955
-0.241599 -0.005132 -0.264421
-0.398322 -0.547490 -0.131988
-0.343359 0.235957 -0.241610
0.493174 0.480125 0.136597
-0.308739 0.305578 0.182168
-0.889902 -0.254500 -0.117638
0.893179 0.250600 0.081904
0.180222 -0.201945 -0.246024
0.284926 0.370986 0.401259
0.364761 -0.101665 0.343463
0.564962 -0.369056 0.090791
-0.075137 -0.491511 -0.314682
-0.502920 0.500057 -0.053325
0.431047 -0.600938 -0.195542
0.234546 -0.053576 0.127799
0.672730 0.172398 0.318877
-0.420854 0.641496 0.105322
-0.278448 0.874812 0.072211
-0.126341 -0.111753 -0.266831
-0.321299 0.457056 -0.208082
-0.658026 -0.387764 -0.148320
-0.578338 -0.276500 0.105233
0.429748 0.320769 0.308781
0.525798 -0.085347 0.155155
0.081039 0.570579 -0.148138
0.549737 0.405381 0.226836
0.337940 0.373310 -0.147827
0.800681 0.186056 -0.123613
-0.140934 -0.173636 0.069869
0.655450 -0.099632 -0.179692
-0.222271 0.407111 -0.204290
0.729611 -0.104493 -0.079670
0.531569 -0.435956 -0.211554
-0.112691 0.843087 0.145298
0.456402 0.040059 -0.181783
0.295020 -0.066654 -0.214438
-0.340316 -0.310637 -0.318205
0.269820 0.131386 0.157685
0.184222 0.216223 0.354256
-0.348483 -0.542529 -0.301293
-0.861022 -0.144859 -0.351776
-0.660367 0.243244 0.012480
0.599397 0.411839 0.157588
0.482724 0.363295 0.213589
0.602953 0.186125 -0.145211
0.406291 0.136739 -0.173653
-0.247528 -0.623434 -0.203845
0.840046 0.078378 -0.056070
0.128348 0.260553 0.160404
0.273299 0.160733 0.363273
-0.630961 -0.156570 0.226924
-0.700059 -0.270380 0.190146
0.083648 0.420686 -0.168949
0.261298 -0.720837 0.036812
-0.396343 -0.094303 -0.293881
0.417548 -0.624930 -0.240147
0.057707 0.437183 -0.169462
-0.443640 -0.509143 -0.185561
-0.535869 0.018952 -0.293189
0.870820 0.276944 0.019524
-0.331555 0.780163 -0.109816
-0.519519 0.016957 -0.291683
0.155137 -0.181758 -0.245924
0.574175 -0.358182 -0.018717
-0.003195 0.048508 -0.230819
0.434971 0.418212 -0.130904
0.893347 0.171445 0.077551
0.359399 -0.151831 0.335817
0.089785 -0.838745 -0.144614
-0.538345 0.437220 -0.167125
0.327856 -0.765661 -0.061030
-0.110832 0.742320 -0.144935
0.874233 0.142277 0.136702
-0.457381 -0.370948 -0.339486
0.153734 0.056763 0.134496
-0.517295 0.472384 -0.154839
0.630310 0.181695 0.397519
-0.703164 -0.260630 0.151984
-0.602233 0.083479 0.212778
-0.799967 0.000805 -0.304186
-0.415042 -0.458087 -0.347123
-0.372830 -0.230034 0.036591
0.390069 -0.661301 -0.013641
0.565777 -0.378456 -0.182506
-0.495618 0.518196 0.102138
-0.442034 0.261778 -0.248759
-0.907690 -0.175453 -0.273207
0.783352 -0.017197 -0.111279
-0.551712 0.424968 0.081475
0.670242 0.350568 -0.114714
0.373802 -0.285220 -0.236589
-0.047977 0.016204 0.288950
-0.799319 0.002062 0.022649
-0.648713 -0.301087 0.189150
-0.106435 -0.240023 0.064296
0.058207 -0.353715 -0.280717
-0.112675 -0.050533 0.298485
-0.535318 -0.205169 0.116803
0.691238 -0.168937 -0.110789
0.489020 0.061023 0.217221
-0.718299 -0.230418 0.206986
0.223899 0.243408 -0.178572
0.233227 0.097595 0.148930
0.607161 0.308920 0.219535
-0.294652 0.055848 -0.261636
0.032478 0.803722 -0.087277
0.763906 0.333347 0.058088
0.322273 -0.322142 -0.247417
0.177991 -0.122224 0.111957
0.646842 0.228419 0.212542
0.457622 -0.550229 -0.019308
-0.141052 0.807849 0.207990
0.161668 -0.351322 -0.269074
0.066158 -0.107168 -0.245150
-0.162629 -0.158161 -0.277328
0.403612 -0.643476 -0.127800
0.671576 0.078467 0.306117
-0.175649 -0.364739 -0.307824
0.012513 0.324458 0.156739
-0.834495 -0.059672 0.010117
-0.600076 -0.005965 -0.303712
-0.203526 0.111011 0.103090
-0.320086 0.464224 0.140064
0.248667 -0.032860 0.132257
-0.377612 -0.000636 0.068353
0.831132 0.302181 0.013027
0.492675 0.268670 -0.145645
0.282406 -0.837570 0.014590
0.402946 0.580238 -0.085118
0.179754 0.222276 0.337976
0.377755 0.493906 -0.126504
-0.530452 -0.442408 -0.255623
-0.096600 -0.564718 -0.327331
-0.263160 0.895282 -0.047838
0.086949 0.134700 0.138167
-0.583943 0.367096 -0.039933
-0.000854 0.026502 0.303971
0.687213 0.367040 0.118513
-0.559986 0.173853 0.072981
-0.612187 -0.408995 -0.179142
0.884259 0.241909 0.149984
0.057023 0.333656 -0.184107
0.456709 0.518022 0.059403
0.573354 0.460747 -0.003304
-0.145935 0.704594 -0.154080
0.120234 0.486088 0.278149
0.155557 -0.261898 0.089848
-0.621761 -0.207213 0.220802
0.473990 -0.101961 0.265890
0.187032 -0.161501 -0.239587
0.668941 0.407524 -0.106841
-0.244361 0.924429 -0.094259
0.133505 0.506132 0.231805
0.588231 0.048989 0.389086
-0.210939 0.600559 -0.175826
-0.526358 0.456242 -0.185643
-0.260816 -0.340340 0.033307
0.713736 0.054395 -0.151645
0.375969 -0.576281 -0.277316
0.373066 0.582129 -0.007176
-0.499823 0.263073 0.092112
0.253172 0.427526 0.306600
0.079812 -0.008710 -0.229801
0.354901 -0.724718 -0.152979
0.410520 -0.637730 -0.271175
0.593613 -0.325162 0.006602
0.029946 0.618335 -0.147000
0.276616 0.397653 0.382901
0.559919 -0.258242 -0.212454
-0.779376 0.036439 -0.260710
0.377143 -0.253780 0.323407
0.879069 0.255683 0.098423
0.767001 0.278830 0.232767
-0.138105 -0.159192 -0.274793
0.298957 -0.759896 -0.311574
0.089574 0.025824 0.123131
0.099464 0.056312 0.128503
0.189718 0.074812 0.140969
0.358588 0.119928 0.165773
0.441052 0.319754 0.280742
-0.585732 0.365743 0.000656
0.118632 0.128143 -0.206298
-0.174766 0.166596 -0.232948
-0.181109 0.375246 -0.204276
-0.607955 -0.417727 -0.149199
-0.279187 -0.080496 -0.279135
0.594284 -0.045835 -0.178804
0.809566 0.028689 -0.042662
-0.229896 0.909440 0.165679
-0.260501 0.718178 0.182316
0.125051 -0.811275 -0.337809
0.358089 -0.255694 0.171666
0.515571 0.449648 0.218876
-0.696710 0.185220 0.059602
0.529905 0.495422 -0.044537
0.451460 0.263815 -0.150832
-0.266331 0.649787 -0.174951
-0.003696 0.473127 0.175891
-0.794640 0.012019 -0.242151
-0.549266 -0.426930 -0.275723
-0.008440 -0.012499 -0.239978
0.869635 0.135000 0.144272
0.097405 0.449033 0.292309
0.421710 -0.613118 -0.114035
-0.640935 0.277745 0.075696
0.078066 0.515190 -0.156258
-0.163197 -0.493438 0.022428
-0.140291 0.099760 0.108417
-0.655291 0.203435 0.066729
0.342625 -0.749507 -0.269099
0.260046 -0.833189 -0.326141
-0.507963 -0.445527 -0.306075
-0.589469 0.352106 -0.189654
-0.243404 0.614168 -0.177458
0.205957 -0.598445 0.245225
0.045825 0.469295 0.180764
-0.593597 0.091726 0.060540
0.069412 0.605704 0.202539
-0.673148 0.221604 -0.002369
-0.500186 0.298140 0.097008
-0.455332 0.583481 0.074453
-0.348992 -0.578112 -0.127521
-0.252460 0.263265 0.178339
0.287768 0.157647 0.163342
-0.261251 0.260891 -0.229128
0.148400 -0.885162 -0.090734
-0.434028 -0.039777 0.079000
-0.431517 0.619337 -0.011499
-0.132136 0.873971 0.052440
0.442882 -0.302157 0.208243
-0.111193 0.809953 0.211549
-0.759661 -0.340928 -0.078821
-0.412974 -0.253415 -0.318091
0.673320 -0.195191 -0.027668
0.185027 -0.847838 -0.336401
-0.324006 0.150054 0.296970
-0.734470 -0.335001 -0.017702
-0.156928 -0.702080 -0.087152
-0.924529 -0.220880 -0.179486
-0.417094 0.216985 0.302869
0.184632 0.665342 0.139208
-0.693935 -0.256758 -0.002261
-0.484058 0.276913 0.180637
0.277316 0.170470 0.164005
-0.218317 0.693870 -0.163499
0.092429 0.754075 -0.021647
0.298667 0.338745 -0.156984
0.118245 -0.048956 0.115740
0.449006 0.324452 0.234807
0.544075 -0.135926 0.195865
-0.185027 0.086274 -0.245374
0.623009 -0.146099 -0.189776
0.078232 0.419936 0.355674
0.682685 -0.041428 -0.168524
0.105655 -0.281274 -0.265337
0.389379 0.093512 0.373622
0.101291 0.344995 -0.177673
-0.203353 0.275901 -0.220689
0.092740 -0.154211 0.296379
-0.136986 -0.678674 -0.258615
0.850569 0.198852 0.230644
-0.345021 0.424745 -0.215222
0.813275 0.039233 0.070152
0.132496 -0.308608 0.275751
0.296504 -0.274265 -0.243495
0.617152 -0.008335 0.378933
-0.572123 0.386615 -0.038774
-0.082346 0.132718 -0.227617
0.838002 0.272416 0.137113
0.036602 -0.505126 -0.304388
-0.403008 -0.506889 -0.314914
0.654508 0.053574 0.388205
0.649815 -0.237067 -0.107841
0.561190 -0.374951 0.098938
0.054870 -0.829617 -0.087032
-0.247929 0.749486 0.188096
-0.240991 -0.437018 -0.325137
0.129632 -0.851648 -0.198294
-0.665069 0.225328 -0.246313
0.622271 0.362967 -0.118212
0.542973 0.316403 0.213574
-0.855656 -0.089891 -0.277406
0.037519 -0.546740 0.245063
0.349447 -0.246060 0.150213
-0.041799 -0.390017 0.142457
0.230121 -0.928438 -0.105722
0.305163 0.159206 0.277782
-0.659497 -0.362348 -0.267089
-0.448137 0.345226 0.109323
-0.047133 0.028957 0.177909
0.049810 0.457611 -0.167449
-0.265741 0.489346 -0.197466
-0.342184 -0.406160 0.015152
-0.242950 -0.664725 -0.010394
-0.182988 -0.025015 0.086190
-0.469150 0.085806 -0.276489
0.717256 0.166493 0.217671
0.615230 0.307147 -0.126837
0.724848 -0.107286 0.048926
0.344741 0.513111 0.219596
-0.226862 0.481313 -0.194348
0.159276 0.245287 0.286252
0.892842 0.187529 -0.113335
0.521481 0.492126 -0.004026
-0.432525 0.618856 0.018501
-0.428713 -0.505779 -0.245358
0.025314 0.642666 0.202922
0.531084 0.474883 0.051471
-0.447612 0.594965 0.043077
0.433063 -0.408112 -0.247409
-0.843771 -0.236797 -0.337833
0.247697 0.055956 0.144651
-0.509864 0.116827 -0.276572
-0.177232 0.082628 -0.245035
0.758848 0.059893 -0.145941
-0.576678 -0.291872 -0.341393
0.443618 -0.572281 0.006662
0.272268 -0.193394 0.120190
0.022824 -0.181133 0.294912
0.197998 0.341483 -0.167599
-0.440229 0.469310 -0.219354
0.065673 0.724664 0.198752
0.424475 -0.307312 0.228079
0.834914 0.134992 -0.127059
-0.354614 -0.307267 -0.319293
0.762792 0.302406 0.211146
0.006023 0.036148 -0.231551
0.022187 0.771859 0.097002
0.178225 0.593782 0.212753
-0.122402 -0.231339 0.063773
0.569895 -0.368429 -0.100030
-0.889855 -0.136752 -0.036124
0.226189 0.598727 0.218690
0.902811 0.190979 0.177886
0.207337 -0.673855 -0.309477
0.315786 -0.788326 -0.131724
-0.428392 0.629038 0.104327
0.558555 0.000089 0.309561
-0.437286 -0.044697 0.090379
-0.709475 -0.048390 -0.321638
-0.090733 0.023279 0.129916
0.090594 -0.549551 0.250467
-0.050576 0.109496 0.119591
-0.052179 -0.198040 0.284336
0.533407 0.040957 0.173762
0.033045 -0.450607 0.258103
-0.853704 -0.086990 -0.285437
-0.374376 0.335748 0.227424
0.498473 -0.481981 0.004730
-0.213905 0.638628 0.176212
-0.049548 -0.364145 -0.293961
0.095954 -0.753330 -0.332834
0.665548 0.069031 0.318680
-0.402307 0.337966 0.298105
0.441424 -0.578397 -0.056988
0.436024 0.171986 -0.165443
-0.455518 0.540417 0.135987
0.272359 0.322831 -0.162098
-0.935156 -0.221916 -0.143493
0.751233 -0.063174 0.065260
-0.557370 -0.244166 0.048951
-0.133851 0.149126 0.116069
0.641467 0.030495 0.347641
-0.387767 0.691043 -0.021011
-0.101136 -0.551954 -0.326030
-0.232563 -0.464956 -0.328148
-0.891990 -0.139996 -0.029165
-0.130175 0.561358 0.174488
-0.259491 -0.181617 -0.291214
0.038793 0.394739 0.169502
0.165456 0.295063 0.377518
-0.205843 -0.501768 -0.330409
0.254380 -0.884022 0.007463
-0.166172 0.736900 -0.151745
0.303298 -0.132475 0.323473
0.160004 0.597326 0.211260
0.500547 -0.475540 0.081692
-0.585730 0.106291 0.101380
0.759070 0.095332 -0.140929
0.701302 -0.153864 -0.149164
-0.471767 0.001262 -0.288673
0.036505 0.538099 -0.157576
-0.094140 -0.239344 0.257408
0.132420 0.129038 -0.204665
0.920808 0.212718 -0.023428
0.317529 -0.108637 0.337320
0.593549 -0.321664 0.098305
-0.016116 -0.795067 -0.047396
0.094686 -0.189071 0.301648
-0.239548 -0.636820 -0.162296
-0.566431 0.203888 -0.270501
-0.002748 0.613451 0.195744
-0.476153 -0.456418 -0.346069
-0.354444 -0.239707 0.037238
-0.526505 -0.190017 0.132893
0.481759 -0.507119 0.065779
0.841250 0.079860 -0.068821
-0.654327 -0.039471 -0.314356
0.771884 -0.030185 0.038956
0.644974 -0.245701 -0.124602
-0.453574 0.585012 0.039718
0.230828 -0.638971 -0.302000
0.299590 0.165740 0.262388
0.061303 -0.343708 -0.278971
0.567466 -0.360589 -0.226033
0.546612 -0.132489 0.176979
-0.407135 0.598565 0.149458
-0.439223 -0.393910 0.006271
0.667901 0.003609 -0.163801
-0.003324 -0.049208 0.310622
0.414082 0.011297 0.156548
0.480726 -0.241097 0.175461
0.301317 0.187689 0.377253
0.506728 0.244019 -0.147579
0.073796 0.750335 0.050775
0.269529 -0.837363 -0.325693
-0.241343 0.838693 -0.145633
0.804198 0.026508 0.126887
-0.431219 -0.488131 -0.323503
0.216053 0.686505 -0.054852
0.436624 -0.028611 0.153395
-0.308654 0.818113 -0.104230
0.130536 -0.534454 -0.298250
-0.489047 -0.480399 -0.192370
0.404686 -0.646538 -0.250730
0.115163 0.267138 0.309044
0.686989 0.390357 0.006268
0.460654 -0.063014 0.151179
0.622363 0.201358 0.325474
0.816852 0.048533 0.156854
-0.114182 0.458575 0.161770
-0.323023 0.046255 -0.266086
-0.454539 0.544979 0.136736
-0.184171 0.366591 0.141175
0.030806 0.232768 -0.201171
-0.267383 0.568111 0.160444
0.171101 0.696949 0.025614
0.321713 -0.106820 0.204311
-0.295130 0.655154 -0.177342
0.171586 0.089831 0.141101
-0.478553 0.410152 0.115136
0.310294 -0.125041 0.219356
0.720950 0.274169 0.227079
-0.916203 -0.188598 -0.250827
-0.621721 0.032880 0.254597
0.313440 -0.241488 0.233036
-0.165038 0.822146 -0.139624
0.255116 -0.213002 0.294356
0.660636 0.060207 0.300091
-0.321135 0.442925 0.136951
-0.248567 0.919309 -0.048215
0.401984 0.350244 -0.144075
-0.334988 0.276892 0.320273
0.568901 0.004236 0.259325
0.049805 0.444118 0.177655
0.028173 0.388785 0.167504
0.752775 -0.065444 -0.057138
-0.001037 -0.520802 0.075375
-0.798050 -0.278064 -0.016637
0.353172 -0.720303 0.031808
0.063249 -0.260267 0.288192
0.420903 0.002834 0.156103
-0.340644 0.424617 -0.214762
0.308514 -0.232284 0.318933
0.316841 -0.020925 -0.205617
0.231860 0.429472 0.359304
-0.445370 -0.145447 -0.306436
-0.180598 0.148867 -0.236081
-0.440642 0.351601 0.261045
0.315188 -0.115914 0.246444
0.289655 0.425119 -0.145812
0.194243 -0.619994 0.188076
0.234479 -0.314413 -0.255923
0.592438 -0.331390 -0.102595
-0.190511 0.067397 -0.248630
-0.267784 0.887468 -0.052806
0.825267 0.138607 -0.127605
-0.040230 -0.779371 -0.053100
0.078088 0.719018 0.189896
-0.581340 0.113175 0.270310
-0.103463 -0.406787 -0.305854
-0.081095 -0.739212 -0.003190
0.389397 -0.280368 -0.234202
0.702154 0.356167 -0.110439
-0.810323 -0.258256 -0.331429
0.299507 -0.146402 0.128034
0.342566 0.607115 -0.039246
0.840381 0.086786 0.143842
-0.626436 -0.288474 0.063139
0.889130 0.180334 -0.114753
-0.538556 -0.220202 -0.327141
-0.125685 0.289485 -0.210289
0.870465 0.186383 -0.115941
-0.113147 -0.034949 -0.254580
0.419456 0.566087 -0.064731
0.318846 0.388565 0.303801
-0.023863 0.169509 -0.216048
-0.163622 -0.010057 -0.256592
0.292397 -0.822581 -0.022865
0.131622 0.712544 0.065186
-0.428228 0.261908 -0.247232
-0.688076 -0.198814 -0.340470
-0.471926 -0.096925 0.213578
-0.035786 0.847293 -0.099252
0.133458 -0.883378 -0.055815
-0.027213 -0.730336 -0.328466
-0.547613 0.316801 -0.252553
-0.237890 0.000979 0.083849
0.303563 0.548980 0.220144
-0.340723 -0.300186 -0.316778
0.350647 -0.732939 -0.183866
-0.522951 0.419403 -0.235418
0.746824 0.038789 0.196779
-0.227997 0.076744 -0.251411
-0.277843 -0.109461 0.063940
0.590458 0.068454 -0.163138
0.522123 -0.170060 0.247597
0.777871 -0.025374 -0.089587
0.837315 0.162534 0.224084
0.806920 0.020775 -0.133082
0.578494 0.221981 0.353501
0.635149 -0.137507 0.159764
0.330241 -0.240198 -0.235013
0.248868 -0.105263 0.122089
-0.040243 -0.053077 -0.249164
0.351685 0.613624 -0.097340
0.363518 0.571894 0.070217
0.111988 0.509618 0.193669
-0.265106 -0.149798 0.059655
0.346728 0.116770 0.362088
-0.707394 -0.094004 0.105168
0.664631 -0.216014 -0.193271
0.509706 -0.460144 0.089469
-0.501052 0.248342 0.166069
0.312167 0.164981 0.229400
0.291405 -0.154963 0.249862
-0.455322 -0.168880 -0.310822
0.430628 0.099501 0.378973
-0.784168 -0.039270 0.018488
-0.113173 -0.120057 0.191555
-0.390169 0.468762 0.133044
-0.507057 0.496241 0.023016
0.256669 0.441596 0.228282
0.166187 -0.629053 0.205064
0.203683 -0.473808 -0.281722
-0.148895 0.498167 -0.183456
-0.898185 -0.241532 -0.022438
-0.312790 0.162825 0.151748
-0.770140 -0.336188 -0.021767
-0.601139 0.067442 -0.293497
0.304575 0.446737 0.205865
0.448935 -0.088645 0.274450
0.108604 0.761166 -0.103137
-0.613807 -0.316312 0.161116
-0.109510 -0.174767 0.073144
0.187794 -0.615387 0.132746
0.594522 -0.327564 -0.092603
-0.761233 -0.181484 0.136264
0.017607 -0.267722 0.282156
0.411453 -0.357221 0.104396
-0.844183 -0.062021 -0.049209
-0.225325 -0.673646 -0.025448
-0.916581 -0.189593 -0.260306
-0.056566 0.252458 0.139057
0.705939 -0.138239 0.054060
0.291173 -0.825353 -0.321637
0.673738 -0.200884 -0.190066
-0.164380 0.704364 0.190876
0.660658 0.311617 0.225761
-0.378138 0.100322 0.290707
-0.580773 -0.272379 0.216110
0.257142 -0.879662 0.002653
-0.653741 -0.004644 0.129734
0.378633 -0.684759 -0.131098
-0.084428 0.063511 -0.237584
0.194396 -0.402764 -0.272738
-0.734476 0.119241 -0.036067
-0.545433 0.046858 -0.290306
-0.079200 -0.701418 -0.316939
-0.133877 -0.004064 0.274802
-0.080290 0.761270 0.208074
0.028933 0.659387 -0.141333
0.667129 -0.199980 0.110008
0.072965 0.410361 0.332857
0.281664 -0.219142 0.217466
-0.102132 0.179529 0.123814
-0.026863 -0.645236 -0.331042
-0.560969 0.398877 -0.194328
0.436913 -0.180631 0.340234
-0.164098 0.865622 0.186041
-0.180703 0.922296 -0.039967
0.790528 0.003490 0.114241
-0.366826 0.077863 0.255173
0.644034 -0.243898 -0.039319
0.614189 -0.018026 0.256557
0.465030 -0.544605 -0.186761
0.589470 -0.030761 0.377998
-0.713322 -0.352008 -0.160256
0.342827 -0.743606 -0.127443
-0.317213 0.815099 0.177851
0.493719 -0.497902 -0.201099
0.027907 -0.692231 0.015333
-0.139654 -0.264038 0.057286
-0.017632 0.838345 -0.108844
0.093996 -0.208250 0.298873
-0.025111 0.834536 -0.068600
0.165782 -0.906649 -0.037367
0.193525 0.118432 0.147524
-0.248772 0.360794 0.133300
0.498110 -0.317361 0.119476
-0.124772 0.394340 0.151572
0.580378 0.266174 0.210592
0.559043 -0.384200 -0.046391
-0.173221 -0.639043 -0.344881
-0.053551 -0.156013 0.290101
-0.680768 -0.049881 0.111686
-0.171675 0.287878 0.131463
0.340660 0.594346 0.028135
0.355174 -0.728976 -0.272773
0.266685 0.294158 -0.166754
-0.309729 0.170009 0.206234
-0.039811 -0.482491 -0.309553
0.652859 0.345165 -0.117374
0.053190 0.533076 0.190545
-0.426682 -0.242427 0.028961
-0.005771 0.051047 -0.230743
0.725269 0.200487 -0.129823
0.076231 -0.850567 -0.047866
-0.193389 -0.398943 0.032428
-0.503012 -0.461400 -0.243652
-0.014498 0.032554 0.219625
-0.184248 -0.675931 -0.134126
-0.062405 0.255363 0.138828
0.644485 -0.040964 -0.172633
0.536566 0.008241 0.334186
-0.587544 -0.401748 -0.286070
0.845678 0.278910 0.083296
-0.348396 -0.082380 -0.286963
-0.427093 0.268730 -0.246148
-0.231809 -0.646884 -0.136126
-0.317178 0.809899 0.044088
-0.786147 -0.152782 -0.344708
0.525622 -0.164311 0.247169
0.310346 0.622215 -0.018434
-0.454869 0.248950 -0.251967
0.809165 0.280144 0.183761
0.462608 -0.270001 0.199512
-0.241711 0.697797 -0.165503
0.849818 0.310721 -0.082798
-0.662544 0.124812 -0.292133
0.594240 -0.329897 -0.140167
-0.336105 -0.368915 0.021058
-0.192667 -0.694455 -0.019891
0.538505 -0.132042 0.223479
0.343119 0.574769 0.115760
-0.001385 0.035918 -0.232393
-0.377462 0.712189 0.085058
-0.455247 -0.522195 -0.088525
-0.086606 0.285479 0.140422
0.798967 0.165309 0.220284
0.438107 0.504438 0.179402
0.126062 -0.078345 -0.234547
-0.017308 0.233715 -0.206295
0.608674 -0.303814 -0.081560
-0.758400 -0.180314 -0.345551
-0.747431 -0.161727 0.060343
-0.086019 0.527659 -0.172434
0.499913 0.404947 -0.125675
-0.473211 0.544528 -0.167169
-0.502704 0.248014 0.226977
-0.236281 0.938252 -0.081260
0.259959 -0.221425 0.291793
-0.772872 0.047069 -0.262873
-0.663653 -0.192502 0.218294
-0.644460 0.007680 0.054247
0.774744 -0.025459 0.039310
0.272175 0.615316 0.126240
0.444990 -0.529091 -0.263132
0.543337 0.396519 -0.122115
-0.195383 0.423260 0.147926
0.066817 -0.239555 0.291497
-0.676085 -0.274173 -0.349766
-0.366683 0.533221 -0.202322
-0.698170 0.172574 -0.200982
0.323463 -0.019547 -0.204700
0.432330 -0.593670 -0.064411
0.505337 0.262555 0.370299
0.116828 0.721271 0.066058
0.053005 0.540209 0.191529
0.138565 0.266218 0.245278
-0.035129 0.030294 0.193134
-0.099907 0.434769 0.159979
-0.029889 0.826701 -0.016735
0.179078 -0.495872 0.262202
-0.055236 -0.095856 0.298384
0.064188 -0.071635 -0.240364
0.706516 -0.142909 -0.089007
0.476184 -0.090178 0.202447
0.288966 -0.834237 -0.175617
-0.488783 -0.006468 -0.291621
0.189512 0.413631 -0.158373
-0.757640 -0.312332 -0.223174
0.330316 0.146301 0.266944
-0.116640 0.236661 -0.216735
0.856528 0.267127 -0.106101
0.800914 0.015956 -0.003920
-0.469657 0.548866 -0.205768
0.304288 -0.134999 0.217775
-0.423051 -0.549465 -0.050342
0.793196 0.002259 -0.028900
-0.660169 0.164920 0.060776
0.014522 0.149804 0.132378
-0.406003 0.123772 -0.264245
-0.383113 -0.487983 -0.000837
-0.464982 -0.088238 0.143531
-0.319629 0.804129 0.000032
0.132277 -0.639848 0.224221
-0.596123 0.094903 0.247302
0.309460 -0.126269 0.223095
0.139844 -0.357362 -0.272309
-0.023493 0.821667 -0.011007
0.508464 -0.464769 0.023854
-0.530945 -0.482950 -0.057883
-0.018483 -0.085943 -0.251412
-0.338167 -0.091750 0.059840
0.263508 -0.290624 -0.249403
-0.607057 0.328102 -0.063162
-0.570057 -0.425617 -0.221471
-0.659692 0.234299 -0.243420
-0.312338 0.820641 0.114555
-0.142239 -0.082569 0.082543
-0.075643 -0.707338 -0.298648
-0.256109 0.098353 0.095563
0.760775 -0.031226 -0.158554
-0.470819 0.296409 0.121734
-0.033038 -0.484087 0.246170
0.073844 -0.257609 0.289724
-0.410104 0.359262 0.217723
-0.363614 0.417327 -0.218298
-0.350784 0.627056 -0.187379
0.231583 0.292066 -0.170884
-0.514825 -0.171377 0.117520
0.280993 0.629051 -0.118058
0.705288 -0.142657 -0.031085
-0.337490 -0.424400 -0.333907
-0.523630 -0.386343 -0.001888
0.795696 0.150371 -0.129180
0.558324 0.002307 0.299492
-0.130618 0.120426 -0.234622
-0.822794 -0.028476 -0.092319
0.216192 -0.602654 0.180591
0.683229 -0.008454 0.183181
-0.251206 0.499807 -0.194406
-0.238270 0.360865 0.134458
0.275055 -0.856576 -0.160878
0.352271 0.112710 0.365590
-0.162507 -0.629880 -0.343704
-0.276859 -0.268622 0.041647
0.335567 0.313367 -0.156523
0.252647 0.301499 -0.167255
-0.306268 0.502285 0.146930
0.359443 0.095344 0.162406
0.639442 0.177972 0.388924
0.531076 -0.067849 -0.188810
-0.367403 -0.584430 -0.043261
0.150733 0.700252 0.068994
0.262042 -0.493810 0.068845
-0.252465 -0.559520 -0.343632
0.363006 -0.715889 -0.268132
0.277503 0.424800 0.248874
-0.372889 0.318407 -0.233233
-0.468779 0.301804 0.173486
-0.188730 -0.642695 -0.281984
-0.614318 0.237481 -0.271006
-0.016303 0.470025 0.174077
0.780137 -0.018556 -0.011098
0.051227 -0.490381 0.254493
-0.013394 0.329667 0.154641
0.274749 0.636134 0.017937
0.222078 -0.934630 -0.065986
-0.368934 0.073974 0.244588
-0.626466 0.044320 0.232220
-0.478358 0.284814 0.142724
-0.285720 0.206743 0.134413
0.131907 0.282229 0.163843
-0.065389 0.414611 -0.186090
0.287789 -0.226196 0.233767
0.193963 -0.619514 0.251917
-0.446750 -0.524372 -0.102754
-0.163491 -0.349102 -0.304295
-0.625220 0.297462 -0.081381
-0.264673 -0.573083 -0.346875
0.178998 -0.730933 -0.320607
-0.449064 -0.375063 -0.339156
0.531075 0.498370 -0.062225
-0.525558 0.211645 0.259630
0.176191 -0.626188 0.202239
0.086028 -0.353480 0.277563
0.113882 0.476647 0.304216
-0.595074 0.094346 0.189176
-0.380558 0.218465 0.307070
0.450753 0.121228 -0.170977
0.714280 -0.124936 0.042856
-0.756202 -0.310776 -0.234900
0.233983 0.557406 0.213726
0.651072 0.168951 -0.142370
-0.139480 -0.714150 -0.079572
0.548237 0.337422 -0.129897
0.306002 0.598420 0.109439
0.064561 0.136099 0.135917
0.069316 0.312864 0.161315
0.476846 -0.269835 -0.223164
-0.641937 -0.312573 -0.351438
-0.070569 0.518510 -0.172034
0.425216 -0.064623 0.227286
-0.080589 0.828150 0.124039
-0.214426 -0.356122 -0.310849
0.443221 0.551377 -0.062781
-0.032024 0.051520 0.113459
0.616724 0.346922 0.225928
0.297712 -0.221838 0.183741
0.126748 -0.240273 -0.257262
0.393933 0.065340 0.161952
-0.332070 0.134602 0.241850
-0.353017 -0.539154 -0.304415
-0.559591 -0.471375 -0.030425
0.257678 -0.544899 0.061178
0.121412 0.485477 0.213214
-0.639173 -0.025826 -0.310780
0.094403 0.277115 0.321251
-0.363018 0.732462 -0.004620
-0.207190 0.945302 -0.074148
0.078396 -0.645401 0.151938
0.382932 -0.273028 0.321331
-0.643676 -0.359643 -0.326307
0.563608 0.337332 0.218774
0.259781 -0.372027 -0.261267
-0.534488 -0.461909 -0.149432
-0.248602 0.918906 -0.057001
0.704549 -0.137566 0.129409
0.687383 0.347028 0.214911
-0.044149 0.019276 0.270375
-0.241382 0.915719 0.168760
-0.032045 0.476611 0.173284
0.435482 0.153561 -0.168095
0.589720 -0.007263 0.254309
0.041616 -0.657820 0.179016
-0.879425 -0.264369 -0.100396
0.027980 0.037575 0.270911
0.764675 -0.036948 0.169084
0.418717 -0.193968 -0.218838
-0.283862 0.214103 0.243843
-0.373318 -0.076179 0.058190
0.405541 -0.325493 0.108215
0.019005 -0.244836 0.285529
-0.201614 0.945499 -0.091359
0.535529 0.351090 0.217642
0.741892 -0.054883 -0.163947
0.214472 -0.436533 -0.275297
0.030688 0.339106 0.292054
-0.067472 -0.747138 -0.129755
-0.394136 -0.484948 -0.348619
0.625711 0.211979 0.264290
0.091608 -0.193631 0.300670
-0.118269 0.745890 0.201759
-0.059242 -0.311248 0.133104
0.120965 0.727033 0.026099
0.280042 -0.215274 0.203469
0.647102 -0.240137 -0.072240
0.013188 -0.112247 0.303554
-0.352699 0.429193 0.131569
-0.331248 0.213742 0.311794
-0.489561 -0.460731 -0.286102
0.509442 0.427330 0.225521
0.472306 0.196208 0.397138
0.817020 0.155093 -0.126186
0.768114 -0.033053 0.124033
-0.319208 -0.345572 -0.320815
0.781175 0.058779 -0.143658
0.090050 -0.509734 -0.299196
0.253734 -0.757670 -0.316203
0.022082 -0.225981 0.288519
-0.328684 0.295930 -0.231566
0.275330 -0.083127 0.128096
0.030652 -0.725717 -0.336084
-0.126384 -0.366132 0.044367
0.564582 -0.208567 -0.204953
-0.633843 0.278672 -0.197970
0.618639 0.301736 0.219778
-0.608779 -0.367693 -0.355572
-0.364665 -0.050306 0.062777
-0.351581 0.099714 0.172046
0.586342 -0.337161 0.006146
-0.596328 0.338709 -0.243008
-0.429795 0.616652 -0.152044
-0.613285 -0.407376 -0.183782
0.203216 -0.624068 0.244382
0.118141 0.707832 0.127302
-0.078276 0.875030 -0.122699
-0.591873 -0.046165 -0.308473
-0.583383 -0.130036 0.235858
-0.158894 -0.523266 0.018700
0.321341 0.545301 0.221569
-0.112013 0.063186 -0.240644
0.330725 -0.764118 -0.142060
0.320747 -0.106679 0.248378
-0.293419 0.853123 0.147916
-0.295016 -0.603823 -0.160371
-0.312228 -0.492184 -0.340686
0.134600 0.376283 -0.169630
0.152407 -0.076072 -0.231348
0.773037 -0.023147 -0.156077
-0.526942 -0.001233 -0.295054
0.179690 0.307103 -0.174439
0.550440 -0.011281 0.168272
-0.433349 0.618263 0.037962
0.843521 0.162210 -0.122288
0.641766 -0.243302 0.070925
-0.055947 0.032112 0.130107
-0.016920 -0.544224 0.031265
-0.792152 0.013215 -0.316036
-0.660027 -0.350244 -0.011712
0.215359 0.388327 -0.159109
0.457448 0.535145 -0.025660
0.846133 0.136293 0.221354
-0.321615 -0.578571 -0.205106
0.743788 0.354855 0.012594
-0.652522 0.106462 0.053384
0.825812 0.051934 -0.132218
0.452529 0.122438 0.384594
-0.750369 -0.355925 -0.033293
-0.285932 0.781963 0.188514
0.417964 -0.304156 0.231774
0.484162 0.438750 0.224366
0.365173 0.094829 0.162960
-0.216258 -0.458649 -0.325479
-0.210809 -0.132689 -0.279008
0.019795 -0.806129 -0.098514
0.040853 0.135854 0.133292
-0.838786 -0.289147 -0.098886
-0.161934 0.265419 0.129367
-0.670223 0.013620 -0.308621
-0.764613 0.070033 -0.024787
-0.168454 -0.170739 0.067270
-0.576194 0.382686 0.031936
-0.412108 0.349126 0.272642
-0.214231 -0.649808 -0.173208
0.368539 0.133409 0.217946
-0.001823 -0.750695 -0.303904
-0.343832 -0.091991 0.059187
0.269359 0.179985 0.281542
-0.183195 -0.239360 0.056001
-0.699616 -0.172501 -0.338028
-0.343766 0.318613 0.221161
0.098647 0.404950 0.385683
-0.661611 0.189101 0.064021
0.243374 0.187507 0.320869
-0.588195 0.102565 0.109903
0.357479 -0.716087 -0.041466
-0.662955 -0.356477 -0.285437
-0.454773 0.030807 -0.282658
-0.330706 -0.579281 -0.175164
-0.734695 -0.223487 0.064056
0.322249 -0.078744 0.133841
0.420795 -0.610172 -0.000707
0.470535 -0.534853 -0.169388
0.024986 -0.616523 0.052955
0.413654 0.549335 0.033296
0.827347 0.059803 0.003648
-0.057155 -0.764764 -0.074485
0.583546 -0.027056 0.368143
0.375094 0.345193 0.349842
-0.619402 -0.325207 -0.003749
-0.132829 0.865928 0.093406
-0.360273 0.329565 0.216254
-0.436568 0.610077 -0.035413
-0.312951 0.015780 0.077730
-0.002647 -0.772089 -0.197913
0.182289 0.528185 -0.143040
-0.074365 -0.403170 -0.302165
0.023300 -0.739610 -0.338842
-0.224478 0.289682 -0.221058
-0.110686 -0.095209 0.132666
-0.146724 -0.567508 -0.333201
-0.613952 0.147577 -0.283619
-0.288992 0.744611 0.182923
-0.365211 0.079325 0.224635
0.749297 0.033943 0.196368
-0.501809 0.249611 0.230102
0.526035 0.488243 0.001501
0.317950 0.351914 0.402184
-0.638082 0.270755 -0.221727
-0.196484 -0.672809 -0.113576
-0.801403 0.003195 -0.183199
0.761374 -0.030218 0.188657
0.582081 -0.348213 -0.096487
0.194659 -0.261079 0.094236
0.420533 0.062078 -0.182604
-0.420941 -0.018823 0.063547
-0.646122 0.267384 0.029524
0.874216 0.133996 -0.073329
-0.235166 0.537161 0.159609
-0.012044 0.789397 0.111868
-0.359521 -0.383526 -0.330562
0.519667 -0.456723 -0.241055
-0.728101 -0.348037 -0.136404
-0.894128 -0.152527 -0.258386
-0.680328 0.208702 -0.029676
0.281240 0.609498 0.127984
0.365085 -0.711569 -0.245362
0.621230 0.437733 -0.031432
0.359532 0.379302 0.230053
0.791922 0.281443 0.227732
0.165556 0.719041 -0.065185
-0.607615 -0.405527 -0.209261
-0.484929 0.530159 -0.041560
-0.881881 -0.126187 -0.101595
-0.175238 0.667901 0.184558
0.554687 -0.164193 0.147215
0.591527 -0.017994 0.301001
-0.468124 -0.218316 -0.319178
0.673145 -0.189028 0.136464
0.065870 0.236238 0.150154
-0.087981 0.731027 0.202977
-0.312697 0.547652 0.152613
-0.020059 0.832742 -0.074638
0.692773 -0.009154 -0.162879
-0.256022 -0.620209 -0.194702
0.357437 0.612299 -0.107695
-0.281668 -0.617285 -0.134100
-0.045603 -0.748842 -0.185253
-0.219198 0.732234 -0.158196
-0.525508 -0.328902 0.005991
-0.387266 0.692295 -0.010151
-0.703800 -0.095410 -0.327635
0.841745 0.084401 0.025950
-0.272258 0.887520 0.136078
0.559626 0.246647 -0.141428
-0.364195 0.082470 0.262077
0.161769 0.337295 -0.172148
0.475989 -0.116161 -0.201629
-0.286337 0.209909 0.240875
-0.914869 -0.195828 -0.328945
-0.199648 -0.037206 -0.264350
0.633144 -0.266812 -0.165850
0.134133 0.166635 0.147818
-0.387442 -0.538090 -0.209221
-0.648342 -0.119395 -0.324950
-0.606103 0.075029 0.159968
-0.296590 0.841950 -0.003431
-0.455915 0.578581 -0.025754
-0.105320 0.350038 0.147463
0.516105 -0.180205 0.241724
0.279672 -0.177430 0.170043
-0.535755 0.235509 0.084306
0.778454 0.244372 0.229169
-0.257013 0.603939 0.166619
-0.513619 0.196135 -0.265821
0.521631 -0.333375 0.119792
-0.386228 0.700488 0.154771
0.061823 -0.245914 -0.265150
-0.028046 -0.430008 0.112918
0.162548 0.246959 0.268620
0.619947 0.392657 0.190558
-0.215309 0.073453 0.096517
0.535065 0.317952 -0.134077
0.398294 0.084634 0.367369
0.330503 0.062939 0.154683
0.276052 0.192657 0.375191
0.462373 0.297449 0.326593
0.127327 -0.623154 0.065229
-0.606610 -0.319998 0.183599
-0.492694 0.479100 0.123295
0.145295 -0.248834 0.090565
-0.412635 0.140988 0.292661
-0.035601 0.558015 -0.162652
0.352529 -0.412563 -0.256836
-0.416391 0.642910 -0.045777
-0.076503 -0.736076 -0.156992
-0.014280 0.021883 0.314613
0.470668 -0.533742 -0.146702
-0.402263 0.513866 0.138070
-0.519304 0.040738 -0.288312
0.069033 -0.676795 -0.325004
0.823218 0.178026 0.224724
0.504837 -0.397962 -0.238137
-0.116897 0.237182 -0.216690
-0.468207 -0.127971 -0.306472
0.398444 0.232288 0.394144
-0.459758 0.573743 0.012250
0.337469 -0.264844 0.276075
-0.784264 -0.319627 -0.110243
-0.202232 0.903470 0.113946
0.015503 -0.201703 0.291217
-0.019960 0.100038 0.121606
0.177442 -0.596938 0.253289
-0.598822 0.335609 -0.217354
0.644371 -0.246284 -0.114157
0.599098 0.412215 0.156640
-0.057680 0.108721 0.118706
0.142459 -0.401346 -0.278214
0.794884 0.308571 0.087746
-0.032377 -0.100718 -0.255010
-0.754139 0.083134 -0.130522
-0.845935 -0.130969 -0.001168
0.692115 0.144446 -0.141334
-0.330209 0.792053 0.136301
0.166660 0.250629 0.238861
-0.584474 0.200217 0.074015
0.497622 0.327443 -0.136833
-0.717730 0.143791 -0.113421
-0.861297 -0.101775 -0.343303
0.511867 -0.463846 -0.095329
-0.349256 0.656349 0.163915
0.513368 -0.183156 0.281381
-0.404280 0.661498 -0.080549
0.131577 -0.886366 -0.035863
0.244015 -0.209279 0.106920
0.214118 0.231457 0.193350
-0.473501 0.296353 0.232729
-0.866485 -0.109626 -0.325624
-0.313296 0.473303 0.142083
-0.331772 0.326770 0.146702
0.792509 0.311404 0.080955
0.241087 0.180713 0.161487
0.597771 -0.322607 -0.102666
-0.877532 -0.215686 -0.341633
-0.401986 0.669551 0.028192
0.162078 -0.323260 0.093098
0.320267 0.403670 0.226526
-0.397867 0.023935 0.184243
-0.902156 -0.167443 -0.301371
0.436004 0.092812 -0.176588
-0.155504 -0.433678 -0.315325
0.396164 0.556368 0.050227
0.102038 0.395109 -0.170539
0.586643 -0.064798 -0.182308
-0.389062 0.036605 0.137501
-0.340408 0.316108 0.223505
-0.164764 0.894634 0.047505
-0.282974 -0.074214 0.068340
-0.451693 0.589171 0.066710
0.068163 -0.819133 -0.176547
0.147817 0.269951 0.200233
-0.739917 -0.150554 0.029681
0.254348 0.429855 0.291896
0.342337 -0.580514 -0.281587
0.033842 0.154487 0.135148
0.055992 0.442572 0.178114
-0.631448 0.282752 -0.194585
-0.060600 -0.351119 0.209161
-0.002001 -0.012237 -0.239237
-0.030658 -0.035006 -0.245573
0.429217 0.502944 0.212552
-0.108184 0.852735 0.085444
0.214837 -0.909838 -0.164921
-0.408079 0.053921 0.280905
0.600795 0.229637 0.251422
-0.711760 -0.019997 -0.317891
0.688678 -0.098287 -0.175871
0.123285 0.283946 0.203984
0.513902 0.348883 0.214968
-0.398943 -0.329570 -0.327276
-0.055065 -0.338122 0.148712
0.487560 -0.228647 0.205762
0.371840 0.588898 -0.036377
-0.316872 -0.324139 0.029461
0.320642 -0.617775 0.057802
0.023110 0.802054 -0.051893
-0.032952 0.534856 -0.165622
-0.052717 -0.105358 0.297321
0.560396 -0.046284 -0.182571
-0.074503 -0.015293 -0.247591
0.014112 -0.372547 -0.288186
-0.067940 0.554375 -0.166699
-0.714768 -0.015521 -0.317590
-0.319786 0.506344 0.146024
0.381357 0.016258 -0.193334
0.094840 0.596484 0.204020
-0.036501 -0.168775 -0.265039
0.407567 0.282032 -0.153065
0.314168 0.622837 -0.032588
0.198828 0.449445 0.358884
-0.015994 -0.304388 0.273323
-0.662957 -0.097879 0.231688
-0.334399 -0.368683 0.021277
0.535291 0.346573 -0.130024
0.271080 0.031621 0.143782
0.436706 -0.084824 0.291604
-0.414262 0.369274 0.181365
0.391835 -0.666046 -0.208383
-0.502952 -0.503798 -0.038543
-0.051546 0.313713 0.148227
-0.110709 0.051065 -0.242208
-0.533706 0.454080 0.067405
0.311105 -0.125994 0.161108
0.624544 0.000419 0.291821
0.598160 -0.317777 0.003891
0.325075 0.618443 -0.043107
0.266729 0.424334 0.282537
0.010499 0.775151 0.115133
0.465337 0.526606 -0.007310
-0.260486 0.191213 -0.238851
0.537922 -0.370692 -0.230684
-0.620557 0.155967 -0.283160
0.633702 0.383769 0.193498
0.479860 -0.201850 -0.213266
0.273389 0.618583 -0.120362
-0.056996 -0.604103 0.018458
0.066541 0.311201 -0.186227
0.566735 0.246105 0.270975
-0.447795 0.336350 0.172804
-0.022195 -0.758606 -0.206216
0.589957 -0.029828 0.362875
-0.483652 0.526158 -0.196888
-0.327643 -0.110771 -0.288691
-0.807547 0.000619 0.008843
-0.802888 -0.219663 -0.355951
-0.229433 -0.657802 -0.090190
0.311456 0.354545 0.401844
-0.248402 0.821279 0.198149
-0.106930 0.800171 -0.136366
0.111401 -0.017509 -0.227587
-0.469464 0.200249 -0.260416
-0.222552 0.381056 -0.207987
-0.227505 0.496603 0.154738
-0.413680 -0.497689 -0.328353
0.005698 0.439720 0.172216
-0.461956 0.286825 -0.247411
-0.585904 0.366633 0.030507
-0.364048 -0.257872 -0.313372
