0.219674 0.133751 -0.229445
-0.349759 0.515709 0.156585
0.511702 0.188045 -0.232393
0.045518 -0.672955 0.055455
0.029578 -0.810485 -0.105642
-0.191192 0.507423 0.245305
0.018116 -0.673795 0.134192
-0.347881 0.553002 0.159409
0.103861 0.906411 -0.023979
-0.199326 0.255821 0.192348
-0.662331 0.356104 0.128264
0.475511 -0.497833 -0.113078
0.781431 -0.272519 -0.233328
-0.215606 0.242099 0.337894
-0.676089 0.302673 0.148153
0.276953 -0.456773 -0.276291
-0.050107 0.356634 0.230341
-0.119260 -0.804776 -0.293404
-0.434260 -0.133909 0.108651
0.166235 -0.572338 0.060252
-0.452574 0.426423 0.152222
0.923197 -0.134776 -0.168489
-0.522423 -0.218941 0.169454
0.615678 -0.387911 -0.239288
0.165413 -0.725019 -0.004002
-0.040786 0.051533 0.260195
-0.314405 0.420574 0.252266
0.279450 -0.304713 -0.264649
-0.921607 0.161002 0.143242
-0.651314 -0.066134 -0.223571
0.067947 0.778472 -0.176122
-0.028420 0.615781 0.303886
0.383294 0.634985 -0.047634
-0.008643 0.754725 0.166655
-0.069109 -0.075799 0.105735
0.076084 -0.768461 -0.206566
0.752807 0.026985 -0.250673
-0.934386 0.136820 -0.088449
-0.004180 0.722457 0.164062
-0.049386 -0.270810 0.088721
-0.050131 0.010030 0.206862
-0.123567 0.118596 -0.222234
0.335318 -0.172126 0.292568
0.036746 0.542722 0.354872
0.499930 0.318563 -0.222061
-0.902278 0.086265 0.018284
0.011951 0.343020 0.134466
0.647672 -0.128659 -0.260086
-0.604795 0.184602 -0.205409
-0.266435 0.267129 -0.207316
-0.350752 0.526497 0.157439
-0.208930 0.497329 -0.191002
-0.106984 0.316780 0.231042
-0.165275 0.631263 0.160975
0.144543 0.375076 -0.209038
-0.390468 -0.126511 0.168180
-0.563562 0.433164 0.043547
-0.112868 -0.416206 0.079080
-0.460478 -0.449116 0.085031
-0.118477 -0.922010 -0.021069
-0.498572 -0.439657 0.086689
0.593232 0.003421 0.094143
-0.547579 -0.131423 -0.231128
-0.348326 0.211129 0.133108
0.060277 -0.648998 0.056938
-0.059815 0.104825 -0.224850
-0.049196 -0.158140 0.097388
0.532504 -0.186032 -0.261691
0.138811 -0.618222 -0.285345
-0.568953 0.450792 -0.184021
0.432914 -0.309506 -0.268763
0.808246 0.026644 -0.083854
-0.301191 -0.546063 -0.269053
0.333934 -0.163228 -0.255090
0.103509 -0.525428 0.065393
0.687543 0.086536 -0.244497
0.137743 -0.729440 0.048857
0.130361 0.690013 0.363923
0.684459 0.208886 -0.193357
-0.076413 0.580321 0.323942
-0.874994 0.207966 -0.197016
0.892180 -0.185458 0.072310
-0.228564 0.222931 0.324599
0.176508 0.510990 0.349018
0.098114 0.457815 0.257010
-0.601674 -0.137242 0.112480
0.620291 -0.127461 0.217238
0.057928 0.860555 0.121952
-0.004511 -0.498336 0.070115
0.175823 0.557205 -0.195784
0.360220 -0.267285 -0.263740
-0.185774 -0.026905 -0.231914
-0.180200 0.266424 0.221870
-0.500142 -0.406805 -0.253479
-0.268803 0.456446 0.210044
-0.313784 0.411931 0.348806
0.287088 0.477637 -0.204624
-0.314484 -0.335730 0.295836
-0.137579 -0.926717 0.040393
0.693363 0.175608 -0.237784
0.237970 -0.677676 0.032303
-0.081386 -0.876409 0.042894
-0.382707 -0.133845 -0.235338
0.086944 0.428044 -0.203556
-0.138527 0.550460 0.179420
0.247602 0.224833 0.123059
-0.284602 -0.367354 0.292673
-0.282409 0.454125 -0.192534
-0.173450 -0.810375 0.050223
0.185168 0.555756 -0.196124
-0.076869 0.770454 0.077335
-0.086572 -0.752695 0.194434
-0.410363 0.127773 0.128207
-0.825156 0.265400 -0.118462
0.165045 0.653722 0.360283
0.604047 0.263787 -0.228818
0.121562 0.717368 0.339333
-0.396708 -0.216449 -0.241354
-0.062814 -0.684028 0.262888
-0.084678 -0.039230 0.107405
-0.246792 0.443361 0.354145
-0.491624 0.185129 0.134605
-0.116933 0.325087 0.341873
0.632578 0.072811 -0.244212
0.258647 -0.642834 0.052571
0.277147 0.384081 -0.211581
-0.055202 -0.619473 0.267670
0.264467 -0.347651 0.075147
0.941955 -0.160035 -0.208115
-0.619560 0.160018 -0.206941
0.089632 0.749398 0.163846
-0.734204 0.321640 -0.191704
0.391555 0.053899 0.102950
-0.221912 0.114000 -0.220187
0.424882 -0.526232 -0.187712
-0.920977 0.195516 -0.088126
0.504742 0.109686 -0.238254
0.330852 0.588349 -0.197171
0.498261 -0.497062 0.047966
-0.250242 -0.435037 0.286625
-0.264648 -0.650081 -0.277950
-0.570697 0.239814 0.140743
0.312259 -0.538517 0.059291
-0.131154 -0.757952 -0.289510
-0.669228 -0.251235 0.090857
-0.201959 -0.906296 -0.279449
0.331206 0.524703 0.140657
-0.045867 0.250688 0.128771
-0.036940 0.469476 0.351033
-0.088255 0.576723 0.274116
-0.246783 0.659690 -0.177583
0.371745 -0.202541 -0.259038
0.348756 -0.342834 0.073461
0.172923 0.325938 0.267787
0.566440 0.334019 -0.222495
-0.550750 0.208148 0.137819
0.632938 -0.048914 0.185497
-0.117149 -0.839745 0.046588
-0.195606 0.260956 0.165416
0.374030 0.032830 0.101756
-0.370116 -0.449002 0.271962
0.305067 0.437258 0.236477
-0.187027 0.073403 -0.224163
0.174292 0.043136 0.304661
-0.456094 0.484612 -0.185949
-0.449715 -0.407473 0.087974
-0.789081 0.129242 0.137563
-0.476969 0.211755 0.136296
0.502142 -0.356758 -0.274090
0.068773 0.027911 0.314469
0.235523 -0.602875 0.056211
0.224267 0.722142 -0.184273
0.913632 -0.136388 0.075563
0.452098 0.106060 -0.237248
-0.510110 0.434945 -0.188453
0.180389 -0.716462 0.016405
0.572685 0.269846 -0.227586
0.180336 -0.108671 -0.247142
-0.068012 -0.777380 -0.292546
0.074040 -0.429427 0.073501
0.294488 0.453405 -0.206669
0.111731 0.709994 0.344614
-0.136384 -0.630339 0.268815
0.045690 -0.616668 0.059783
0.707957 0.172652 -0.133444
-0.797669 -0.027342 0.125722
-0.345631 -0.238343 -0.244285
-0.192366 -0.479071 0.281824
-0.016431 -0.590889 0.103651
-0.528600 0.215649 0.137856
0.188153 0.676620 0.155840
-0.046614 0.607382 0.257852
-0.068132 -0.522257 0.236369
0.098443 0.488335 -0.199196
-0.103737 0.630203 0.159392
0.414441 0.044593 0.101675
-0.902088 0.187756 0.134915
0.069039 0.245257 0.125549
-0.076098 0.133175 0.120465
0.275704 0.739222 -0.184214
-0.103928 0.747428 0.120897
0.045039 -0.806450 -0.033536
-0.135782 0.536063 0.352941
0.471380 -0.431308 -0.279076
0.452764 -0.239771 0.078854
-0.135557 -0.063400 -0.235948
0.284843 -0.634419 -0.079013
0.112358 -0.489803 0.067919
0.311513 0.043583 0.104110
-0.166657 0.068118 -0.225067
-0.795265 0.133034 -0.204729
0.419437 0.470268 0.134314
-0.356783 0.062922 0.121908
0.822946 -0.015703 0.087065
-0.738375 -0.148457 0.006353
0.646463 -0.383842 -0.053542
-0.048726 0.239766 -0.214735
0.260223 0.511671 0.141387
-0.311756 0.077187 -0.220828
0.770452 -0.296880 -0.055939
-0.643961 -0.084489 0.117572
0.021447 0.831597 0.158509
0.021487 -0.052588 0.309428
-0.502202 -0.200167 0.120236
-0.300158 -0.771804 -0.125971
-0.338991 0.587631 0.071536
0.234404 0.742545 -0.182950
-0.473502 -0.180289 0.122354
-0.233023 -0.821086 0.050852
-0.591396 -0.211554 0.106510
0.413337 0.597049 -0.171139
0.747458 -0.294556 -0.251707
0.047090 -0.467508 -0.271507
-0.091393 -0.482459 0.083391
-0.543680 0.133518 -0.210832
0.002430 -0.800479 -0.296043
0.418193 0.270604 0.118978
-0.083523 -0.201258 0.094907
0.579819 -0.438398 0.030840
0.175165 0.315479 0.128363
-0.571186 -0.391315 0.075997
-0.216572 0.318972 -0.204543
0.585942 -0.423710 -0.079812
0.060308 0.272801 -0.214854
0.542497 0.273034 -0.226604
0.164523 -0.294636 0.081667
-0.146129 -0.431776 -0.264041
-0.441162 -0.397427 -0.254197
-0.134043 0.731667 0.064470
-0.239033 -0.861067 -0.089225
0.047636 0.117733 0.116257
0.469637 0.269930 -0.225065
-0.161359 -0.722289 0.262348
0.707496 -0.117047 0.082083
0.221544 0.800004 0.164522
0.534984 0.368419 0.123656
-0.226282 0.061402 0.118606
0.143460 -0.680636 -0.290262
-0.290095 -0.780617 -0.260168
-0.064618 -0.814401 0.047257
0.490432 -0.034781 -0.249024
0.048093 0.199763 0.122559
0.195328 0.840427 -0.174463
0.068909 0.077410 -0.230101
0.011046 -0.574506 0.063873
-0.704567 0.166811 0.138392
0.797921 -0.166978 -0.266702
0.170903 0.326548 0.322345
0.902524 -0.115192 0.071990
-0.465980 0.509636 -0.043736
-0.672081 0.365040 -0.039303
0.005500 -0.821836 -0.164053
0.129389 -0.243125 0.086489
-0.054193 -0.430895 -0.266217
-0.294454 -0.782930 -0.055874
0.118398 0.108728 0.113836
-0.073483 -0.515681 0.262662
0.457273 0.534103 -0.173739
-0.032324 -0.448955 0.074594
-0.682599 -0.220758 -0.178307
0.207926 0.878753 0.140906
-0.710215 0.350515 -0.168528
-0.085680 -0.259417 -0.252251
-0.390481 0.420213 -0.192506
0.396416 0.619431 -0.125817
0.745697 -0.322013 0.027167
0.149496 -0.474658 -0.274557
-0.606572 -0.197130 0.107991
-0.384675 -0.493224 -0.262949
-0.155687 0.339259 0.343909
0.097331 -0.483494 -0.273964
-0.557314 0.110354 -0.212282
0.113488 0.925877 -0.159368
0.422858 0.572989 -0.200599
-0.845464 0.004870 0.014932
0.278622 0.123580 -0.231666
0.460039 0.106115 0.105297
-0.143635 -0.106814 0.103643
-0.364595 0.553465 0.159853
-0.466460 -0.527977 -0.249080
-0.670209 0.241854 -0.199406
-0.046083 0.701387 -0.179272
-0.022403 0.632143 0.174654
0.071787 0.507313 -0.197085
-0.265444 -0.241486 0.293515
-0.608540 -0.257974 0.103356
0.235670 0.814967 -0.177407
0.072136 -0.547820 -0.278299
0.246198 -0.672836 0.042042
-0.087084 0.770193 0.004115
-0.542695 -0.367102 0.093350
0.314008 -0.334244 0.074970
-0.349462 -0.708916 0.061675
0.243636 -0.570311 0.058519
-0.086868 -0.567255 -0.275915
-0.077510 -0.767193 0.051205
-0.128050 0.369269 -0.202832
-0.088412 0.611024 0.157542
0.163636 0.350517 0.131341
0.409260 -0.421532 -0.276808
0.561634 -0.441816 -0.068092
-0.077233 0.514800 0.355505
0.613636 -0.398148 -0.145611
0.555093 0.162378 -0.235428
-0.581022 -0.130127 0.112524
0.030431 -0.678578 -0.287345
0.208836 -0.161614 -0.251912
0.280836 0.188352 0.321641
0.005734 0.840325 -0.051189
0.366672 0.411925 0.138907
0.674192 0.023784 -0.249001
-0.604899 0.260958 0.143205
-0.447982 0.098975 0.126909
-0.006812 -0.245260 0.089648
0.850207 -0.026553 -0.251311
-0.636851 -0.295857 0.046903
-0.456511 -0.276260 0.303879
-0.293054 -0.443974 0.286982
-0.689940 0.084811 -0.211011
-0.024079 0.298011 0.131881
0.471337 -0.466732 -0.281802
0.104349 0.917728 -0.140705
-0.130632 -0.776461 0.051788
-0.067107 -0.641679 -0.282125
0.495702 -0.477099 -0.183363
-0.038594 -0.574841 -0.277676
0.389540 0.379148 0.137924
0.213457 -0.557087 0.060274
-0.751631 -0.131656 0.059387
0.382371 0.491129 -0.205911
0.192832 0.913270 -0.165624
0.260277 -0.213648 0.085563
-0.517041 -0.211740 0.132918
0.192613 0.883755 -0.171062
0.696406 0.093778 0.098579
-0.183234 -0.944027 -0.020529
0.015760 0.648708 0.282396
-0.491454 -0.037696 -0.225284
-0.115717 0.113590 0.119924
0.290959 0.423822 0.274418
0.376318 -0.543624 -0.285400
-0.195844 -0.500582 0.280253
-0.569438 0.026130 0.124267
0.170435 0.735884 -0.181901
-0.799838 0.051527 -0.210891
0.410603 0.455210 -0.209364
-0.181151 -0.711529 0.065405
0.303478 0.262262 -0.221600
0.786424 -0.286084 -0.051925
0.135865 0.243494 -0.218953
-0.366046 0.259664 0.337939
0.756647 -0.045003 -0.256307
0.161988 -0.194012 -0.253262
0.549374 -0.225449 0.203202
-0.215310 -0.503693 0.280489
-0.564920 -0.358614 -0.248190
0.576887 -0.235813 0.278081
0.277264 -0.310025 -0.265004
-0.442348 0.519365 0.028606
0.515512 -0.029688 0.299133
-0.262118 0.587752 -0.182745
-0.785965 -0.083955 0.096875
-0.180300 -0.881600 0.044908
0.265307 0.413382 -0.209037
-0.120067 -0.646705 0.267157
0.138087 0.880281 0.172737
0.010414 -0.628349 0.078221
0.298752 -0.304144 -0.265076
-0.405663 0.557615 -0.105246
-0.220719 0.491943 0.190254
-0.071291 -0.092628 0.126424
0.920395 -0.140940 0.074382
-0.190794 -0.577979 -0.274203
0.312141 0.288440 0.328580
0.079632 -0.772014 -0.142396
-0.428313 -0.075608 0.112993
-0.709951 0.057205 -0.212647
0.316293 0.727365 0.042398
-0.262143 0.337341 -0.202017
-0.160410 -0.001242 -0.230558
0.084979 0.890665 0.002997
0.410893 -0.192802 0.095162
0.402533 -0.542767 -0.178139
0.156589 0.331227 0.130028
0.141988 -0.607636 -0.284608
0.304707 0.270644 0.327392
-0.322848 -0.743824 -0.016682
0.151461 0.934452 0.031929
-0.256343 0.612958 0.161789
-0.354495 -0.469322 0.221902
0.638247 -0.143078 0.081769
-0.028710 0.373943 0.205451
0.436956 -0.407425 0.066337
-0.416004 0.338376 0.170640
0.230632 -0.601196 0.056460
0.530729 0.323987 -0.222395
0.513119 -0.457505 -0.262158
-0.243655 -0.813606 -0.291048
-0.405460 -0.310359 -0.248368
0.206319 0.826810 -0.175779
0.540932 -0.179075 0.287015
-0.307172 -0.584685 0.070856
0.452860 -0.320141 -0.270069
0.355614 -0.511884 -0.282452
-0.752434 0.314453 -0.099107
0.288537 0.593680 0.147007
-0.281211 0.621187 -0.179706
0.354647 -0.339499 0.073574
-0.011806 0.334138 -0.208373
-0.641101 0.080300 0.130185
0.615689 0.212009 -0.233087
-0.381360 -0.574199 -0.269262
-0.246189 0.660553 -0.013566
0.833603 -0.012030 -0.029398
-0.296434 0.622592 0.016345
-0.774822 0.285424 0.043048
0.320267 0.642445 0.149986
0.437124 0.561943 -0.148047
0.055349 -0.373243 0.078281
-0.354891 -0.618092 0.069450
0.168389 -0.452017 0.069460
-0.879185 0.056873 -0.071146
0.172404 -0.602074 0.057813
0.127712 -0.754373 0.047183
0.642708 -0.370295 -0.225542
0.307406 -0.177853 -0.255568
-0.336087 -0.680085 0.064219
-0.704204 -0.099636 0.117877
0.879027 -0.189808 -0.270439
0.227461 -0.200122 0.087405
-0.416596 0.335360 0.262814
-0.120375 -0.926404 0.011542
0.322435 -0.394555 0.070123
-0.227591 -0.386525 0.289806
0.741298 0.129310 -0.240925
-0.472723 -0.453481 -0.257741
-0.031111 -0.548087 -0.275800
0.048400 -0.445632 0.072880
0.306414 -0.125570 0.296857
-0.652309 0.082230 -0.212128
-0.290525 -0.788458 -0.058487
0.221443 -0.683343 -0.030387
-0.244281 0.648324 0.130679
0.235983 -0.645056 -0.289782
-0.259597 -0.241740 0.099489
0.067211 0.687364 0.254065
0.517964 0.346150 0.122357
-0.357094 0.584003 -0.024552
-0.389411 0.254618 0.137458
0.625003 -0.112957 0.273935
0.184663 -0.108269 0.301160
0.097223 0.270644 0.126815
-0.261062 -0.832412 -0.018668
-0.040185 -0.708769 -0.287945
-0.445444 -0.558542 -0.239426
-0.261704 0.545418 0.156722
0.493595 0.335218 0.122111
0.417594 0.426625 -0.211735
-0.578928 0.373127 -0.191531
-0.112393 0.360229 0.344467
0.434852 0.017584 -0.243637
0.204063 -0.702759 0.046794
-0.051807 -0.113513 0.144576
-0.534549 -0.426276 0.088597
-0.378537 -0.169070 0.310226
-0.718774 0.126694 -0.207084
-0.125418 0.510840 -0.192001
-0.113032 -0.321581 -0.256368
0.406566 0.318362 -0.219798
0.183074 -0.058554 -0.243352
-0.464807 0.153064 -0.211253
0.752966 -0.253228 0.070492
-0.069344 0.597635 0.192421
-0.066327 0.220287 -0.215805
0.245589 -0.673445 0.043994
-0.304409 0.430329 0.222894
-0.542015 -0.113828 -0.229909
-0.725236 -0.166633 -0.009877
-0.459391 0.497471 0.134639
0.408027 -0.214520 0.081890
-0.346183 -0.479691 0.184717
-0.101802 0.507353 0.355531
-0.845832 0.235408 0.046674
-0.386079 0.546930 -0.182861
0.371003 -0.219283 -0.260309
-0.145765 -0.851052 -0.296319
0.650630 -0.386994 0.010971
-0.374447 -0.479246 0.080613
0.506425 0.312067 0.120016
-0.312696 0.190210 -0.212106
-0.234163 0.470098 0.322552
-0.074865 0.730713 0.166423
0.109421 0.719821 0.222927
-0.433695 -0.241127 -0.242350
0.937321 -0.159368 -0.065405
0.159161 -0.408009 -0.269663
-0.091519 0.767880 -0.004283
0.016653 -0.815815 -0.145117
0.136718 -0.367578 0.076732
-0.316005 -0.523973 0.207905
0.628281 -0.087105 0.240204
-0.641143 0.073319 -0.213087
-0.510517 -0.467646 -0.180006
-0.453054 0.426531 -0.190493
-0.649984 -0.124045 0.114675
-0.133371 0.101146 0.119398
-0.200211 -0.014438 0.112133
-0.900869 0.161427 0.142769
0.376138 -0.451328 -0.278293
-0.351495 0.267806 -0.205187
-0.398339 -0.408231 0.265599
0.278614 0.619537 -0.193496
0.000343 0.839474 -0.082243
0.279050 -0.042507 -0.244459
0.051209 0.194193 0.122054
0.193853 -0.697580 -0.084234
-0.113244 0.312559 0.135177
-0.324216 0.359526 0.349582
0.100993 0.704846 0.319483
-0.253694 0.609458 0.161455
0.086875 0.480982 0.348897
-0.097416 -0.823988 0.047319
-0.752927 -0.120820 -0.154674
0.112491 -0.743627 -0.199824
0.106967 0.129837 0.115740
0.227734 0.392019 0.142274
0.676426 -0.223222 0.074669
0.199860 -0.690934 -0.110220
-0.090779 -0.723087 -0.287812
-0.905000 0.109817 -0.203838
-0.121432 0.157040 0.123408
0.182819 -0.216912 -0.255533
-0.544902 0.446483 0.040732
0.245822 0.435771 -0.206839
-0.343414 -0.248611 -0.245129
-0.921549 0.131461 -0.201768
-0.354203 -0.417836 0.290486
-0.202259 0.599110 0.159404
0.189931 -0.380908 -0.268328
0.617002 -0.104241 -0.257458
0.081674 0.043492 -0.233023
-0.295641 0.510453 0.154859
-0.169780 -0.880311 -0.297985
0.418749 0.584615 -0.059841
-0.188982 -0.469663 -0.265911
0.633702 -0.351641 -0.276907
-0.025677 -0.057833 -0.238201
-0.036765 -0.809644 -0.295792
0.200655 0.889587 0.131388
0.074959 0.262607 0.126740
0.480597 0.461360 -0.210599
-0.692438 0.360081 -0.138001
-0.834421 0.138090 0.139351
0.318493 -0.213356 -0.258571
-0.798354 0.281010 -0.085072
-0.209115 -0.312151 0.089438
0.254229 0.215268 0.124356
-0.414040 -0.148547 0.227153
-0.712015 -0.187174 0.027515
0.618827 0.264914 -0.229092
0.925105 -0.193652 -0.003191
0.259112 0.813527 -0.055393
0.614939 -0.154337 0.201104
-0.359395 -0.598240 -0.271648
-0.035574 -0.554893 -0.276215
0.553538 -0.438980 -0.158484
0.881601 -0.077556 -0.109443
0.148015 -0.298694 -0.260978
-0.813795 0.279274 -0.181479
-0.739554 -0.076643 -0.222226
-0.078255 -0.038689 -0.235445
-0.251142 -0.845749 -0.040122
0.485848 0.293449 -0.223650
0.266935 -0.628306 -0.277230
0.026924 -0.666389 0.120953
-0.280553 0.282190 0.342565
-0.363745 -0.588985 0.071906
0.005464 0.090908 0.115221
0.029672 -0.696153 -0.288679
0.314087 0.196984 0.190679
0.164070 0.510824 0.183956
-0.433124 0.007285 -0.223246
-0.514475 0.030647 0.123273
-0.041389 0.604570 0.326628
-0.033133 -0.473179 0.072750
-0.524553 -0.225105 0.218052
-0.209835 0.376793 0.348119
0.276031 -0.526144 0.061128
0.167894 -0.472161 -0.274814
-0.382852 0.475312 0.154283
-0.568630 0.420441 0.141148
-0.669440 0.221118 0.141714
0.160182 -0.706728 -0.237432
0.470563 -0.495938 -0.170034
0.169533 0.583015 -0.193644
-0.165634 0.236957 -0.212098
0.883128 -0.073821 -0.250777
-0.852821 0.021123 -0.120883
-0.361685 0.366544 0.351037
0.513584 -0.211731 -0.263207
0.077584 -0.289483 0.084185
0.294812 0.523414 0.141446
0.530068 0.392012 -0.217144
0.415591 0.145750 -0.233303
0.028753 -0.812607 -0.089209
-0.282924 -0.570133 0.176560
-0.019223 0.081054 0.259799
0.154701 0.669260 -0.186645
0.904373 -0.109017 -0.138557
-0.424271 -0.248111 -0.243118
-0.608654 -0.203623 0.107542
-0.087621 -0.895376 -0.074752
-0.279984 0.077152 -0.221606
0.109591 0.517808 0.351176
0.597835 -0.058511 0.294905
0.361737 -0.349147 0.072658
-0.418669 0.146584 0.129858
-0.706281 0.051896 -0.213146
0.319893 0.134895 0.110933
-0.784850 -0.069694 -0.220586
0.240133 0.118255 -0.231137
0.122828 -0.677405 -0.289510
-0.062656 0.779599 0.085811
0.066303 0.094490 0.114012
0.919607 -0.198318 0.070651
-0.680413 -0.194427 0.110001
0.585283 0.328883 0.119385
-0.208248 -0.002299 -0.229472
0.073858 -0.523228 0.066286
-0.265928 0.662033 -0.176140
0.023564 -0.813316 -0.120272
0.705660 -0.053349 0.087030
0.380933 -0.516332 0.059323
-0.705772 -0.156430 -0.229191
-0.464564 -0.169197 -0.236061
-0.752569 -0.126776 -0.024883
-0.166647 -0.273801 0.091353
-0.102970 -0.174947 -0.245328
-0.186197 -0.533664 0.277471
-0.229688 -0.870679 -0.179812
-0.412049 0.550862 -0.080948
-0.011108 -0.701015 0.206242
0.249050 0.567657 0.211765
-0.080099 -0.814784 -0.295130
0.465570 0.291483 0.119429
-0.063123 -0.071279 0.242339
0.295749 0.451573 -0.206841
0.144745 -0.738124 -0.018394
0.223755 -0.015812 -0.241055
-0.335773 -0.127225 -0.235974
0.827716 0.002082 -0.164434
0.823343 -0.257650 -0.079651
0.571249 -0.102039 -0.256172
0.639566 -0.367749 0.064446
-0.163785 -0.524641 0.277619
0.328354 -0.459366 0.064990
0.523321 -0.471888 -0.033322
-0.585981 -0.292027 -0.242551
-0.158320 -0.170955 -0.243670
-0.417454 -0.594777 -0.269964
-0.255215 -0.609954 0.177879
-0.488017 -0.216132 -0.239101
0.351317 -0.287277 0.077674
-0.511183 0.448863 -0.187356
-0.156754 -0.834553 0.047954
-0.009331 -0.123304 0.174652
0.291938 0.187783 0.123742
0.614119 -0.406628 -0.051849
-0.049457 -0.058926 -0.237705
0.011134 0.474869 0.350275
-0.045913 0.332878 0.135098
-0.048437 0.001122 0.292824
-0.533482 -0.276301 0.100113
0.897956 -0.108430 0.067064
0.863277 -0.052950 -0.069120
0.380748 -0.467540 -0.279653
-0.017771 -0.035775 -0.236697
0.359451 0.285057 0.327165
-0.729929 0.016042 -0.215328
0.049560 -0.229987 0.089448
0.368840 0.222522 0.116482
-0.072281 0.590149 0.250177
-0.051546 0.763260 0.168359
0.124667 0.531984 -0.196477
0.792226 -0.067191 0.083852
-0.131822 -0.709215 0.262633
0.133705 -0.329399 0.079743
0.490219 -0.284596 0.074491
0.391883 0.409417 0.130304
0.264677 0.721604 -0.185300
0.622611 0.240444 -0.231067
-0.211587 -0.294441 0.090861
-0.068809 -0.624938 0.267582
0.213564 -0.157215 0.296687
-0.352571 0.508947 0.156133
-0.438851 -0.466967 0.083130
-0.938236 0.154933 -0.199554
-0.264898 -0.164817 0.102138
-0.216736 0.237998 0.252358
0.855747 -0.234994 -0.079523
0.097985 0.892799 0.077057
-0.509370 -0.480226 0.080716
0.533114 0.154677 0.107251
0.002542 -0.294570 0.085625
0.673842 0.031966 0.094372
-0.277725 -0.113098 0.106432
0.554585 0.225694 0.112193
-0.742268 0.126525 0.136212
0.028889 0.457246 0.348485
-0.159706 0.153637 0.124080
-0.224275 -0.396362 -0.259409
-0.705851 0.315771 -0.192848
-0.717584 -0.038483 0.122910
-0.414838 0.337362 0.154897
-0.541216 0.366079 0.149741
-0.163661 -0.938244 -0.184572
0.615152 -0.389727 -0.223893
0.149341 0.261276 0.124822
-0.148808 -0.474190 -0.267240
-0.737093 0.260023 -0.196376
0.466438 -0.113309 -0.254482
0.225914 -0.045884 0.304954
-0.900689 0.134044 0.140657
0.152554 -0.097293 0.302788
0.350679 0.223302 0.183012
-0.365873 0.422532 0.149807
-0.113681 0.679320 0.163415
0.496851 0.450402 -0.211839
-0.390279 -0.586189 0.072769
0.190680 0.482392 0.140831
0.036952 0.408109 0.330590
-0.512581 -0.205132 -0.237655
-0.352157 0.409881 0.148498
0.164541 0.232896 0.122267
0.025568 0.219402 -0.218115
-0.320280 0.467723 -0.190563
-0.164497 0.406774 -0.199056
-0.058506 0.262651 -0.212735
0.050572 0.274056 0.128216
0.327473 0.445637 0.314054
0.070431 0.886761 -0.063714
0.310217 0.732917 0.117903
0.618596 0.255032 0.112889
0.288333 0.709860 0.155954
0.554691 0.118593 -0.238788
0.039397 0.671262 0.218393
-0.339904 0.151425 -0.214427
0.307443 0.253626 0.326015
0.054165 0.369085 0.135442
-0.338760 -0.255435 0.302608
0.037438 -0.191811 -0.250053
-0.169128 -0.360941 -0.258028
-0.092512 -0.758039 0.207074
0.368348 0.076888 0.105286
0.244909 0.550308 -0.198001
0.016106 0.250906 0.127275
0.337583 -0.107252 0.297506
-0.463007 -0.367040 -0.251325
-0.219538 -0.877162 0.046207
0.080561 -0.170654 0.093258
0.345283 -0.511198 0.060588
-0.916910 0.197244 -0.076241
-0.866780 0.217052 0.086037
0.193202 -0.239394 0.085218
0.154548 0.506742 0.143586
-0.163797 -0.117586 -0.239429
0.655945 -0.379813 -0.025851
-0.002402 0.400365 -0.203505
-0.336495 0.188717 -0.211641
0.366562 0.664794 -0.185857
0.197071 0.030676 0.311550
0.091169 0.526197 0.352272
0.059761 0.435057 0.213698
0.184836 0.524483 0.144213
-0.012032 0.389347 0.165712
0.593801 -0.049994 -0.252717
0.401720 -0.468875 0.062468
-0.601909 -0.079574 0.116924
0.253572 0.570108 0.237409
-0.292750 0.593169 -0.181580
0.528050 -0.461263 -0.111124
0.251130 0.142309 0.113182
0.459702 0.332575 -0.220001
0.309649 -0.567596 0.057117
0.664877 -0.022927 0.090367
0.647780 -0.166150 0.079761
0.811933 -0.226601 -0.271633
-0.255727 0.208251 0.278643
0.016719 0.114468 0.116760
0.407579 0.484348 0.135687
-0.589202 0.310699 0.146650
-0.175588 -0.944888 0.039922
0.188491 0.741000 0.160787
-0.006226 0.825262 0.020012
-0.417768 0.372493 0.147222
-0.432697 -0.354254 0.091654
-0.764889 -0.106919 -0.076767
-0.494295 0.282110 -0.200601
-0.199962 -0.128056 0.103383
-0.723138 0.292338 -0.194229
0.485154 0.115646 -0.237317
0.333068 -0.600151 -0.084664
-0.113067 -0.912953 -0.077139
-0.582858 0.414501 0.098464
0.023903 -0.638228 -0.284080
-0.249993 -0.117610 -0.237327
0.352382 -0.083693 0.298958
-0.266231 0.014024 -0.226800
-0.873918 0.044674 0.039513
0.231363 0.551129 0.255941
0.477930 -0.471085 0.060438
-0.585664 0.339810 -0.193931
0.649776 -0.217789 0.075738
-0.881290 0.064501 -0.180982
0.308702 0.481780 0.137903
0.329152 -0.603755 -0.075477
0.633594 0.245558 -0.230942
-0.249006 -0.534799 0.278917
0.233442 -0.446638 0.068286
-0.856733 0.233293 -0.011929
0.005772 0.839147 -0.038379
0.069284 -0.792233 -0.004357
0.864261 -0.218580 -0.190735
-0.038645 0.534697 -0.192282
0.002733 -0.129472 0.229857
0.073197 -0.303487 -0.259521
0.142711 -0.046198 0.306961
0.443056 -0.199009 0.101304
0.369138 -0.585287 0.025599
0.349337 0.681222 0.011845
0.164995 -0.197360 0.089142
-0.089364 -0.774917 0.050899
0.424245 0.572102 0.050419
0.072146 0.475677 0.348848
-0.508338 -0.247601 0.101709
0.139212 0.234856 0.123036
0.184488 -0.654390 0.053492
-0.722057 0.341706 -0.162934
-0.297026 0.237177 0.339502
0.266690 0.204716 0.323246
0.643850 -0.373643 -0.181443
0.122234 0.907859 0.097300
-0.749060 -0.137570 0.112382
0.012975 -0.635374 -0.283594
0.144901 -0.016207 -0.239161
0.102643 -0.042184 0.308247
0.353834 -0.369127 0.071313
0.431132 0.265792 0.118292
0.368407 0.401845 0.319904
-0.343104 -0.707267 -0.195234
0.713174 0.058058 -0.247315
-0.159141 0.717500 0.028413
0.751143 -0.299875 -0.167734
-0.817249 0.173719 0.141674
-0.020731 -0.491942 -0.271732
0.061254 -0.447943 0.072388
-0.104773 -0.102932 -0.239742
-0.319464 -0.522078 0.281104
0.397675 -0.279272 -0.265576
-0.308053 -0.097113 0.108402
-0.081472 -0.006782 0.109825
-0.705439 -0.152731 -0.228915
-0.087486 0.333862 0.194442
0.353323 0.409851 -0.211457
-0.060062 -0.059806 0.269669
-0.353637 0.066630 0.122117
-0.028223 0.375641 0.191018
0.173011 -0.348687 0.077300
-0.198840 0.298981 0.341862
-0.075526 0.588270 0.246012
-0.008631 -0.431440 -0.267371
-0.208877 -0.886817 -0.297531
0.788144 -0.282139 -0.081086
-0.205720 0.252870 0.176163
0.048157 0.584611 0.357817
-0.061679 -0.185125 -0.247120
-0.364270 -0.441063 -0.259432
-0.359017 -0.640555 -0.274914
-0.920356 0.148157 -0.200512
-0.148887 0.279018 0.320891
-0.295377 0.434288 0.247983
0.142416 0.944978 -0.147294
-0.680642 0.360592 -0.055685
0.722644 0.148558 -0.061533
-0.280648 -0.574700 0.207580
0.503426 0.387060 -0.216875
0.944717 -0.173756 0.024561
0.564237 -0.126744 0.290474
0.343261 0.068562 0.105257
-0.629156 0.182139 -0.205004
0.567277 0.257408 0.114324
0.353453 0.023755 -0.241175
-0.091955 0.771838 -0.049612
0.694398 0.146418 -0.240056
0.362017 -0.425398 -0.275952
0.305899 0.183862 0.269309
-0.798583 -0.065483 0.088191
0.081350 0.047637 0.315680
0.926721 -0.172891 -0.211956
0.231119 0.547367 0.294132
-0.699370 0.103151 -0.209370
0.132685 0.536720 -0.196308
0.586835 -0.084882 0.293144
0.314463 0.215621 -0.225457
0.071647 -0.508128 -0.275233
-0.234104 0.221670 0.296790
-0.163465 0.317320 0.342411
-0.012603 0.636807 0.197959
0.405284 -0.318283 0.073971
0.367954 -0.532884 0.058366
-0.691762 0.218146 -0.200705
-0.523654 -0.217080 0.140509
-0.243470 0.115575 0.123195
-0.138984 -0.923973 -0.152752
0.096600 0.415402 -0.204764
0.266165 -0.652520 -0.025468
0.427838 0.344469 0.124427
-0.312184 -0.190822 0.306932
-0.837208 0.258277 -0.132364
0.313996 0.031921 0.114435
-0.380084 -0.650959 -0.272419
-0.070051 -0.740660 0.189357
-0.432553 0.542209 -0.141465
0.597634 -0.417707 -0.056657
0.180370 0.917426 0.161734
-0.083003 -0.530618 -0.273189
-0.360439 -0.492379 -0.263475
-0.225512 -0.857811 0.047843
0.285109 0.329775 -0.215955
0.064179 0.677182 0.339799
0.454593 0.394443 0.127621
-0.235183 0.671302 -0.045986
0.238125 -0.587263 -0.285386
-0.219720 0.086457 0.120375
-0.068438 -0.253044 -0.252182
-0.142744 0.729337 0.024528
0.642837 -0.257736 0.072833
-0.262906 -0.054389 -0.232147
0.590566 -0.040644 0.296458
-0.422457 0.345235 0.227915
-0.101034 0.742841 -0.174740
0.028238 0.378537 0.136802
-0.103303 -0.722871 0.260886
-0.517827 0.447013 0.155400
0.342849 0.219677 0.163312
-0.314054 0.070231 0.121428
-0.352341 -0.704249 0.048926
-0.374673 -0.004989 -0.225617
-0.026874 -0.850071 -0.104633
0.273160 0.793787 -0.065415
-0.485812 -0.188130 0.114162
-0.841682 0.256883 -0.150820
-0.257229 0.644454 0.075512
0.012789 -0.821839 -0.109802
-0.085943 -0.754218 0.215308
-0.325388 -0.741184 0.007288
-0.080534 0.039433 -0.229377
0.106631 -0.742386 -0.256620
0.021974 0.777649 -0.175064
0.122643 -0.026637 0.308956
0.137955 -0.381103 -0.267075
-0.183734 0.222204 -0.212792
-0.080081 0.580945 0.290023
0.657924 0.197296 0.107485
0.329534 -0.408298 0.068892
-0.052894 0.358899 0.185531
-0.576241 0.018953 0.123881
-0.209797 -0.346060 -0.255891
-0.118090 0.740179 0.092632
-0.291385 -0.149719 -0.238788
0.183829 0.915004 -0.168443
-0.204144 -0.879568 -0.297089
-0.768923 0.163938 0.139742
-0.051539 0.807695 -0.130261
0.092041 0.690370 0.364886
0.682684 -0.349499 -0.149295
-0.090143 -0.098852 -0.239785
0.556377 -0.218262 0.086916
-0.160336 -0.849888 -0.295874
-0.307477 0.271194 0.342375
-0.218440 0.490634 0.221139
0.047254 -0.277368 0.085858
-0.278822 -0.175084 0.101688
0.654675 -0.377954 -0.055063
0.491854 0.164500 0.109014
-0.270266 -0.322556 -0.252606
0.365473 0.656737 0.043547
-0.169354 0.301365 -0.207050
-0.677613 0.021132 -0.216213
0.115019 0.436336 -0.203603
0.236278 -0.447331 -0.274572
-0.243177 -0.421274 0.287512
-0.472931 0.417242 -0.190723
0.201798 -0.276117 -0.260553
-0.423210 -0.194094 0.309390
-0.347633 -0.548751 -0.268126
-0.331287 0.256123 -0.206580
-0.701316 0.252610 -0.197819
-0.093902 -0.889945 -0.179238
-0.247430 0.215120 0.267308
0.618203 0.296629 -0.018256
0.502855 0.210119 -0.230479
0.194679 0.192262 0.118404
0.579027 -0.044107 0.296473
0.297737 -0.300255 0.077983
0.619627 0.064480 0.098198
0.480529 -0.271914 0.075703
-0.102803 -0.821983 0.047605
-0.362062 -0.594846 0.071414
-0.115364 0.636259 0.160142
0.716178 0.151688 0.085108
0.315404 -0.426598 0.067828
-0.140113 0.230888 -0.213188
-0.222754 -0.877325 -0.258627
-0.146103 0.372199 0.346210
-0.065260 0.117429 0.118988
-0.158178 0.071407 0.117714
-0.685905 0.316667 0.149470
0.145317 -0.156541 0.092764
-0.778620 0.296871 -0.106935
-0.120744 -0.795845 0.050055
0.158308 0.845437 -0.173174
-0.561238 -0.158640 -0.232889
0.650871 -0.037055 0.089621
-0.316810 -0.225121 0.304405
0.055261 0.877257 -0.075498
0.576673 -0.413407 -0.258319
0.144119 0.730179 0.166022
-0.802170 0.004153 0.128256
-0.080940 -0.494163 -0.270434
0.707866 -0.112648 0.082412
-0.362107 -0.333867 -0.251235
-0.498943 0.342737 -0.195822
0.079486 0.893212 -0.064947
0.741402 0.020729 -0.250877
-0.168804 -0.542642 -0.272021
0.041855 -0.134256 0.097004
0.214400 -0.323018 -0.264470
0.316855 0.537407 0.141985
-0.505647 -0.049891 0.116859
-0.545682 -0.020708 0.120082
-0.767779 -0.049856 -0.219476
-0.262660 -0.307891 -0.251663
-0.095901 -0.453087 -0.266907
-0.731364 0.183853 -0.202378
0.529094 -0.209769 0.284942
0.393888 0.408327 0.130171
-0.372171 -0.439640 0.119055
-0.143461 0.725270 0.062443
0.330814 0.407297 0.337272
0.316751 0.236250 -0.223925
0.328192 -0.400337 0.069537
-0.027411 -0.646019 0.264949
0.222844 0.706014 0.157256
0.243669 0.146277 -0.229066
0.346042 0.554277 -0.200164
-0.239281 0.649749 0.152722
0.521084 -0.081146 -0.253340
-0.001231 -0.611182 0.067392
-0.904139 0.202016 -0.031983
0.155908 -0.006009 -0.238645
0.530048 -0.383786 -0.276851
-0.054807 -0.383757 0.080161
-0.140041 -0.257888 -0.250807
0.748403 -0.301651 -0.169236
0.113529 0.728901 -0.181050
-0.354287 -0.700189 0.018692
0.080459 0.440891 0.305638
0.645524 -0.035903 -0.252895
-0.303613 -0.379498 -0.256174
-0.717934 -0.006045 -0.217320
0.664445 -0.355402 -0.222210
-0.765502 0.073160 -0.210064
-0.518315 -0.073429 0.115357
-0.951432 0.159331 -0.041897
-0.382439 -0.659714 0.016932
0.236936 0.285488 -0.218188
-0.884912 0.227174 -0.195296
-0.452740 0.054674 -0.219120
-0.489316 -0.120357 -0.231698
-0.620451 -0.020597 -0.220820
0.171517 0.697366 0.157843
0.252818 -0.654727 0.051798
-0.107279 -0.897220 -0.201390
-0.143163 -0.177443 -0.244540
0.425134 -0.276582 -0.266039
-0.377834 -0.658691 -0.165025
-0.086552 0.727243 0.166441
-0.406952 -0.151627 0.312262
-0.259085 -0.697123 -0.281706
-0.149647 -0.758091 0.097608
-0.194756 0.371174 0.347319
0.233338 0.386928 -0.210293
0.292497 0.698900 -0.187727
0.387013 0.459744 0.134296
0.010000 0.851020 -0.133195
-0.163358 -0.840772 0.047637
0.104782 0.818584 0.168801
-0.260666 -0.423159 0.287794
-0.563374 -0.223757 0.104887
-0.631067 0.393198 -0.033622
-0.290900 -0.364573 0.293040
-0.103152 0.773314 -0.148609
0.050873 -0.220176 0.090171
-0.498390 0.317117 -0.197807
0.020493 0.660592 0.191236
0.470895 -0.203760 0.098060
-0.347687 -0.261140 0.302387
0.310518 -0.045911 0.302887
-0.498992 0.490093 -0.081506
-0.679881 -0.032239 0.122470
-0.089736 0.762486 0.066338
0.292921 0.276542 -0.220243
-0.436171 0.177519 0.132666
0.071303 0.843260 -0.171218
0.210773 0.020380 0.310424
-0.090782 -0.890273 -0.152542
0.423574 0.143068 -0.233704
0.200215 0.467529 -0.203281
-0.125473 -0.083991 -0.237779
-0.067334 0.635361 -0.183835
-0.019303 0.084507 0.212435
-0.019910 -0.627692 0.266176
0.087046 -0.773009 -0.076654
0.556375 -0.180509 -0.261849
0.203629 0.446459 -0.204986
0.058799 -0.453778 0.071999
-0.254674 -0.564006 -0.271569
-0.379824 -0.113385 0.108902
-0.490927 0.474358 0.145827
-0.311945 0.604452 0.093859
-0.355820 0.068547 0.122318
-0.547684 0.205700 -0.205179
0.177249 -0.473213 0.067612
0.006304 -0.446353 -0.268884
0.064818 0.487465 -0.198442
0.028633 -0.134227 0.231454
0.381443 -0.550339 -0.254504
-0.459570 -0.325847 -0.248239
0.603840 -0.412045 -0.070703
0.151049 0.810622 0.167059
-0.421243 0.351233 0.194871
-0.817668 0.041757 -0.211207
-0.708545 -0.102007 -0.224935
0.096287 -0.435791 -0.270267
-0.154397 0.456715 0.352917
-0.357164 -0.163424 -0.238238
-0.249804 0.170576 -0.215152
0.028269 0.002539 -0.234872
-0.109471 -0.770343 -0.290993
0.539566 -0.210361 0.284641
0.025676 -0.353722 0.080508
0.448610 -0.105925 0.294898
-0.643275 -0.107208 0.115807
0.039973 -0.383229 0.077888
0.174003 0.940216 -0.166262
0.124719 0.800001 0.166884
0.022857 -0.564004 -0.278342
-0.316681 -0.520279 0.142987
0.424484 -0.522509 -0.230262
0.750961 -0.302058 -0.145868
0.564924 0.336393 0.120460
0.713483 -0.316524 -0.270841
0.143517 -0.523016 0.064603
0.033828 -0.811639 -0.061752
-0.560574 0.282910 -0.198922
0.195441 -0.699124 -0.055998
0.061109 -0.197045 -0.251034
0.279676 -0.333856 0.075838
-0.009442 0.282370 0.130320
0.754658 -0.086381 0.083292
-0.354120 0.397304 0.204281
-0.562024 0.003306 0.122329
-0.133624 -0.104632 0.103567
0.364571 -0.197313 0.271595
-0.071466 -0.107505 0.190908
0.046879 -0.345812 0.080599
0.092856 0.387313 0.135901
0.233679 -0.294982 -0.262783
0.626902 -0.140891 -0.260521
-0.487419 0.485131 0.057357
0.938903 -0.153139 -0.268082
-0.359869 -0.072881 -0.231203
-0.520109 -0.266447 -0.242190
-0.013017 0.149192 -0.222577
-0.125282 -0.927785 -0.010282
0.047793 0.479772 0.349757
-0.705132 0.030262 -0.214839
0.495063 0.286655 -0.224398
0.250744 0.196706 -0.225358
0.116925 -0.209833 -0.253380
0.634224 -0.047675 0.213597
-0.155884 0.401948 0.348739
0.467912 -0.003043 -0.246031
0.567534 -0.408517 -0.279669
-0.926684 0.121293 0.018206
0.156663 -0.707611 -0.254224
0.088340 -0.773817 -0.058438
-0.147162 0.147499 -0.219434
-0.709783 -0.190010 0.018733
0.373224 -0.206093 0.083388
-0.329742 0.181033 -0.212397
0.180950 -0.213178 -0.255200
0.356681 -0.595693 0.043595
0.369939 -0.324114 0.074385
0.094439 0.908743 -0.118880
0.296393 0.427128 0.279675
-0.614223 0.419004 -0.182749
-0.763495 -0.105403 -0.160662
-0.808239 -0.053116 0.123758
0.362289 -0.495849 0.061354
0.478509 -0.494948 -0.121452
-0.410358 0.322841 0.347849
-0.386254 -0.129255 0.228701
0.912549 -0.199837 -0.030823
0.478441 0.171091 -0.232886
0.013966 0.719559 0.163396
0.369477 0.424141 -0.210752
-0.295605 0.618780 0.063046
-0.786229 0.295136 -0.145089
0.423432 0.359677 -0.217030
0.050919 0.868109 -0.010520
-0.210418 0.679296 0.053225
0.172659 -0.030173 0.307463
-0.078986 -0.222683 -0.249588
-0.156181 -0.730753 -0.286806
-0.028667 -0.727371 -0.289658
-0.142563 -0.200282 0.096423
-0.732693 0.047467 -0.212842
-0.328031 0.307688 0.345686
-0.128078 -0.277068 -0.252575
-0.283998 0.192850 0.335773
0.284710 0.176221 0.192931
0.571224 -0.223172 0.117921
0.546524 -0.452122 -0.070902
-0.564257 0.453747 -0.180500
0.116814 0.902069 0.118549
-0.797792 -0.053926 -0.214453
-0.083587 0.288448 -0.210137
0.542312 0.039057 0.098128
0.408842 0.251206 0.318969
-0.516235 0.475691 -0.056613
0.032883 -0.677340 -0.287310
0.276303 -0.126799 -0.250879
-0.032997 0.799481 0.095021
0.262349 0.647502 0.151789
0.591767 -0.405287 -0.232381
-0.174901 0.689807 0.165716
0.179898 0.329777 -0.213387
-0.798893 0.071633 0.133369
0.116186 -0.744026 0.048260
0.296744 0.733709 0.157584
0.216828 0.492204 0.140948
-0.100482 -0.888278 -0.245915
-0.184225 -0.713204 0.210545
0.287993 0.448367 -0.206898
-0.123823 -0.905244 -0.239128
0.216074 0.544531 0.212370
0.311288 0.134110 -0.231653
0.047626 0.379266 -0.206350
-0.406229 -0.459046 -0.259792
-0.413134 -0.498401 0.080083
-0.320573 0.575691 -0.182247
0.592702 -0.355534 -0.276205
-0.179217 -0.070578 -0.235435
0.040502 0.670244 0.237441
0.029154 -0.241412 -0.253668
-0.133973 -0.711631 0.262500
0.114107 -0.045354 -0.240653
0.061621 -0.455751 0.071778
-0.297386 0.148651 -0.215679
-0.203826 -0.671253 -0.281064
-0.277809 -0.809633 0.011271
-0.626128 0.406096 -0.134038
-0.704378 0.015176 -0.216018
0.286086 -0.421935 0.068903
0.315089 0.367392 0.334585
-0.114511 0.290474 0.133509
-0.077762 0.336770 0.235854
-0.264961 -0.534368 0.279340
-0.234711 -0.861201 -0.233942
-0.231649 0.322264 0.344455
0.752328 -0.054996 0.085764
-0.242908 -0.626699 0.156015
-0.006944 -0.122219 0.304762
-0.041382 -0.100340 -0.241090
-0.102365 -0.768154 0.241335
0.884604 -0.075485 -0.261602
0.428990 0.043813 -0.241475
-0.006302 0.780461 -0.174157
-0.229561 -0.396524 0.289084
-0.351775 0.212635 0.133308
0.510600 -0.468512 -0.163859
-0.111618 0.758623 -0.055367
-0.669629 0.234339 0.142736
0.092479 -0.706758 -0.291028
-0.605113 -0.314498 0.098922
0.413926 0.152407 0.109985
-0.345784 0.230876 0.331002
0.383708 0.234900 0.305387
-0.734584 0.271834 0.147207
0.147448 -0.723302 -0.155916
-0.084652 0.238803 0.128803
0.813767 -0.262163 -0.102899
-0.114366 0.755351 -0.041006
-0.357787 0.503886 0.155871
-0.274139 0.152405 -0.215957
-0.677574 -0.224329 0.107630
0.330658 -0.257561 -0.262270
0.255939 -0.651759 -0.109631
0.151218 -0.630036 -0.286557
-0.594721 -0.133683 -0.230151
-0.295859 0.269415 0.341955
-0.025679 -0.819697 0.045899
0.669131 -0.350350 -0.241078
-0.955358 0.166587 -0.080585
0.922724 -0.131614 -0.227701
-0.599839 0.392787 -0.189508
0.482349 -0.025306 -0.248097
0.029212 0.162059 -0.222618
0.007378 0.283608 -0.212730
0.005638 0.531529 0.354769
-0.012814 0.625889 0.312485
0.252124 0.816827 0.105035
0.106121 -0.492503 -0.274872
-0.427575 0.095796 0.126166
0.199735 0.645072 -0.189605
-0.705502 -0.090088 -0.224092
-0.118234 -0.387483 -0.261313
-0.523646 0.159631 -0.209311
0.194275 -0.000894 -0.239187
0.543822 0.166556 0.107904
0.824490 -0.084729 -0.261021
0.305128 -0.274781 -0.262972
0.297715 -0.340925 -0.267882
-0.062787 -0.040620 0.108827
0.581630 0.290655 -0.226203
-0.069545 -0.601706 0.269388
-0.780557 0.261405 0.147527
0.106968 0.721468 0.187169
-0.097042 -0.617998 0.268805
0.011885 -0.821580 -0.119286
-0.061106 -0.044199 0.169720
0.336066 0.423615 0.338400
0.140052 0.917963 -0.167146
-0.373822 -0.040298 0.114380
-0.031451 0.339387 0.135246
-0.144556 -0.836338 0.047519
-0.245455 0.635943 -0.179443
-0.056869 0.789978 -0.172190
0.050721 0.699982 0.160993
-0.335940 -0.343210 -0.252593
0.171080 0.836178 0.168537
0.555364 -0.203790 -0.263616
0.075124 -0.608090 0.059724
0.600071 -0.420848 -0.005125
-0.226875 -0.635037 -0.277714
-0.398285 -0.367493 0.295437
-0.519767 -0.100320 -0.229413
-0.612351 0.057068 -0.215040
0.137645 -0.738551 -0.066681
-0.549123 0.444973 -0.186729
0.227635 -0.247369 -0.258971
-0.147273 -0.084631 -0.237296
0.603857 0.200344 -0.233696
-0.120829 -0.902252 -0.248673
-0.889227 0.078515 -0.206632
-0.398781 0.551987 0.005794
-0.265208 -0.446771 0.286087
0.198047 -0.378824 0.074369
-0.225783 0.659257 0.152024
0.633465 0.086999 -0.243142
-0.181377 0.331430 0.343934
0.240864 -0.161591 -0.252692
0.162540 0.783649 -0.178032
-0.470331 0.492455 0.106602
-0.599008 0.022577 -0.218020
0.434267 0.276956 0.234279
0.262553 -0.071184 0.302113
-0.111277 0.262875 -0.211430
-0.301540 0.605834 -0.180391
-0.136006 0.294629 0.250701
0.036648 -0.801986 -0.143423
-0.595815 -0.315187 0.098642
0.008635 0.303287 0.131489
0.663009 0.176574 0.105766
-0.160193 -0.387512 0.173720
0.123242 -0.397396 0.074766
0.453930 0.018809 -0.244008
-0.295595 -0.195466 -0.242206
-0.311779 0.295777 0.344372
0.300774 -0.103792 -0.249706
0.539429 -0.321687 0.070435
-0.182424 0.464863 0.354229
0.027513 0.379635 -0.205831
0.209884 0.539856 0.216041
0.382555 0.213497 -0.227283
-0.548134 -0.007946 0.121124
-0.246087 -0.060600 0.109700
0.512380 0.348672 0.122688
0.365609 0.413002 -0.211514
-0.822688 0.197992 0.143675
0.356923 0.669377 0.034724
-0.489434 0.449657 0.154910
0.784571 -0.041389 0.086024
-0.646787 -0.255259 -0.238237
-0.362299 0.173723 0.130571
0.159855 -0.115529 -0.247170
-0.280134 0.181708 -0.213555
0.082639 0.636975 -0.187371
-0.492363 0.012473 0.121335
0.215247 0.628191 0.163889
-0.753927 -0.124592 -0.030527
-0.295444 0.172055 -0.213925
0.317261 -0.436074 0.067054
0.933166 -0.190692 0.025301
0.860384 -0.235361 -0.041126
0.799937 -0.091714 -0.260959
0.487637 -0.160955 -0.258666
0.592281 -0.388062 0.064037
-0.555380 -0.387003 0.092128
0.777193 -0.109924 -0.261805
-0.201330 -0.295924 0.090497
-0.385650 -0.560895 -0.268133
-0.066626 -0.868831 -0.200863
0.421769 0.369562 -0.216228
-0.015350 0.038723 -0.231022
0.130374 0.913548 -0.167250
-0.687190 0.345799 0.052915
-0.481394 -0.190185 0.168875
-0.454217 -0.163137 0.106888
0.425819 0.452591 -0.209937
-0.031143 0.526818 -0.193072
0.353748 0.639321 -0.193807
0.122806 0.397582 0.135960
-0.580149 0.435338 -0.102960
0.535425 0.390488 -0.217392
0.320729 0.040317 -0.239102
0.416704 -0.249506 0.078985
0.467105 -0.293830 0.074344
-0.556317 0.443056 -0.007742
0.413323 -0.117698 -0.253523
-0.355816 0.259034 0.342619
0.287208 0.766728 0.099074
0.749233 -0.264544 0.069712
-0.290637 0.494480 -0.189227
-0.402527 -0.619600 -0.252151
-0.262433 -0.806629 0.052683
0.867861 -0.140717 -0.266388
-0.189291 0.135565 -0.219324
0.290037 0.443891 -0.207293
0.447674 -0.015655 -0.246508
-0.065954 0.212406 0.126315
-0.794155 0.203712 -0.199317
-0.346726 -0.504237 0.078013
-0.253560 -0.565505 0.276665
0.782303 -0.057390 0.084848
0.629618 -0.055427 0.128320
0.379817 -0.555037 -0.216645
0.092257 -0.314993 -0.260871
-0.604763 -0.054553 -0.223816
-0.672657 -0.108812 -0.226335
0.612300 -0.414769 0.021199
-0.038391 0.174751 0.122744
-0.232564 0.538722 0.155496
-0.673878 -0.148498 0.113376
-0.232999 -0.338245 -0.254723
0.178247 0.341711 0.309107
0.455384 -0.506065 -0.175262
-0.425627 -0.485913 -0.261386
-0.216840 -0.422187 0.286799
-0.120497 0.592799 -0.185813
0.862556 -0.108400 0.078964
0.371700 -0.408066 0.067881
-0.275414 0.551169 0.157499
-0.198466 0.527123 0.153771
0.008757 0.054076 0.317947
-0.257879 -0.567518 -0.271761
0.646730 -0.242921 -0.268857
0.315340 0.530804 -0.201221
-0.255512 -0.137253 -0.238704
-0.247807 -0.080847 -0.234551
0.364427 -0.590862 0.049843
0.043910 -0.804162 -0.066265
-0.575115 -0.189818 -0.234950
-0.193947 0.257483 0.214680
0.010696 0.394970 0.274990
-0.042921 0.038235 0.265748
-0.621544 -0.305958 -0.236064
-0.387987 0.208375 -0.208871
0.139014 0.344655 0.131491
-0.228705 -0.146442 -0.240066
-0.808488 0.005528 0.128516
-0.112734 -0.211250 0.094851
-0.216012 0.048778 -0.225351
0.229391 -0.174726 0.294002
0.188103 0.850187 0.169200
0.583472 -0.210117 0.283588
0.496187 0.479167 -0.195421
0.344433 -0.179365 0.291789
0.028217 -0.605620 -0.281676
0.175332 0.685459 0.164253
-0.608095 0.394513 0.123288
0.460301 -0.324716 -0.270602
0.337395 -0.036803 0.302932
0.340547 0.096299 -0.235277
0.221152 0.038299 -0.236827
-0.174785 0.525460 -0.189670
0.765891 0.035741 -0.250319
-0.456329 -0.555823 0.068200
0.493335 0.315128 -0.222164
0.806089 -0.261862 -0.163218
-0.239407 0.676286 -0.130413
0.068793 -0.145106 0.095511
0.056042 0.439282 0.141105
0.203510 -0.638418 0.054257
-0.510785 0.479651 -0.058192
0.677888 0.205707 0.107319
-0.137111 -0.776266 0.101981
-0.241254 0.127802 -0.218653
-0.695015 0.124293 -0.207849
0.110306 0.896500 0.129359
-0.512215 -0.265867 -0.242338
0.429061 -0.206090 0.287666
0.823407 0.005783 -0.105232
0.412635 0.260328 0.250173
0.659401 0.156485 -0.238427
0.094101 -0.303005 0.082741
0.170827 0.658490 0.360509
-0.027026 -0.714728 0.233664
-0.107413 -0.031645 0.108544
0.169313 0.839966 0.168872
0.069372 0.536583 0.353603
-0.019676 -0.604100 0.267986
-0.343890 -0.484830 0.228816
0.139101 0.278424 0.126391
-0.668887 0.146638 0.135969
-0.268916 0.259132 0.340506
-0.079824 -0.735032 0.056802
-0.367230 -0.278801 -0.246872
-0.434933 0.296308 0.141778
-0.608462 -0.324382 -0.244415
-0.006859 0.276868 0.129834
-0.714709 0.329546 0.021039
0.147077 0.920442 0.148303
0.321254 -0.599186 -0.182820
-0.144809 0.143184 0.122912
0.527349 0.186900 -0.232863
-0.746967 0.309621 -0.007048
0.190557 -0.687518 -0.215751
0.260618 -0.423277 0.069421
0.382430 0.105836 -0.235565
0.154786 -0.052635 -0.242206
-0.126816 -0.895134 0.042561
-0.001201 -0.688268 0.144398
-0.288070 0.232910 -0.209421
0.623330 -0.087023 0.109467
0.046712 0.583124 0.357738
-0.083504 0.421132 -0.199928
-0.385790 -0.531674 0.076855
-0.422733 0.484623 0.155973
-0.482197 0.504992 -0.114999
0.083952 0.487970 0.349506
-0.004299 -0.292056 -0.256750
0.059918 -0.321762 -0.260603
-0.451035 0.527396 -0.121422
-0.185831 0.257234 0.132691
0.046006 -0.372734 0.078549
-0.153799 0.536590 0.213301
0.391074 -0.570788 0.034592
-0.335160 -0.631508 0.067936
-0.139746 0.292085 0.249932
0.793590 -0.269185 -0.178326
0.575345 -0.432849 -0.061452
0.153778 0.408589 0.136051
-0.055532 -0.010855 0.161647
0.525311 -0.245915 0.076611
0.124058 0.910917 0.078353
-0.310564 0.417795 0.310392
-0.405804 0.550180 -0.027237
-0.032171 0.302180 -0.210335
-0.412479 -0.147728 0.230059
0.043787 0.539793 -0.193902
-0.643618 -0.114338 -0.227469
-0.705915 0.245764 0.144501
-0.225694 0.016380 -0.227608
0.642475 -0.394602 0.062308
-0.078082 -0.895892 0.001692
-0.225278 0.242236 0.143752
0.331239 0.213728 0.140209
-0.203396 0.319530 0.343555
0.327489 0.469875 -0.206207
-0.235585 -0.164436 -0.241283
0.464892 0.039403 0.100044
0.049171 -0.326001 -0.260667
-0.206699 -0.667531 -0.280707
0.196539 0.383870 0.133105
-0.211184 0.488854 0.294044
-0.244769 0.635455 -0.179497
0.335803 -0.347284 0.073435
-0.035085 -0.140248 -0.244315
0.192793 -0.587638 -0.284309
-0.651241 0.302504 0.147534
-0.418742 0.194326 -0.209201
0.138039 -0.053064 0.306546
0.329402 0.141025 0.111172
-0.165975 0.541087 -0.188683
0.374392 -0.445938 -0.277835
-0.438829 0.480662 0.156061
0.163778 -0.714857 -0.124240
0.066143 0.673054 0.364185
0.303127 0.624032 0.148987
-0.221113 -0.558885 -0.271994
-0.468101 -0.112682 0.111110
-0.198157 0.072852 -0.223934
-0.155540 -0.693837 0.264396
-0.040186 0.077294 0.156382
0.826872 -0.196995 -0.269719
-0.047640 0.349401 0.325614
-0.202661 0.651675 0.163459
0.534261 -0.393865 -0.277729
0.216782 0.711792 -0.184887
0.673130 -0.059566 -0.255390
0.121215 0.112276 -0.228694
-0.067482 -0.090871 0.218554
-0.207674 -0.655113 0.268648
-0.051164 -0.543982 0.173722
-0.200984 -0.127380 -0.239275
-0.851190 0.146887 -0.202298
-0.749341 -0.123995 0.117104
0.095682 0.478056 0.348456
-0.352859 0.594557 -0.105281
-0.043906 -0.199224 -0.248638
0.220009 -0.285806 0.080992
0.319596 -0.087617 0.299456
0.833375 -0.010549 -0.056932
-0.171449 -0.732865 0.242195
0.734283 -0.207105 0.074498
0.299916 0.219012 0.323535
0.136086 -0.530946 0.064174
0.436141 -0.176784 -0.258627
0.544779 0.205014 -0.231895
-0.079450 -0.649616 0.265942
-0.540175 -0.422013 -0.253243
0.195508 0.520071 0.319487
0.005662 -0.700639 -0.288438
-0.144374 -0.767866 0.150260
-0.328272 -0.117226 -0.235387
-0.220616 0.477003 0.349899
0.498303 -0.487712 -0.051159
-0.140165 -0.762239 0.258756
0.409148 0.598969 -0.073588
0.168401 0.577460 -0.194044
-0.414780 -0.150556 0.243007
0.372975 -0.278828 0.077796
0.270553 0.526966 -0.200424
0.881916 -0.084219 0.038642
-0.013856 0.335524 -0.208216
0.190153 0.447358 0.138147
-0.032511 -0.262817 -0.253811
-0.938612 0.179331 -0.047197
0.032003 -0.819197 0.005043
-0.406482 -0.393712 0.198036
-0.553753 0.312899 0.145955
0.266451 -0.168092 -0.253817
