-0.651640 0.189259 -0.037320
-0.686257 -0.231013 0.191582
0.030290 -0.459790 0.151822
0.173428 0.286127 0.084985
-0.499554 0.571980 0.002648
-0.580638 0.339332 -0.226406
0.068684 0.197025 0.091392
0.456919 -0.302588 0.321968
-0.419216 0.176575 -0.258637
0.752924 0.174277 0.105818
-0.059933 0.518571 0.059156
0.505504 -0.572108 0.164797
-0.864521 -0.326317 0.052987
0.877361 0.334540 -0.250011
0.699674 -0.108040 0.037459
-0.710720 0.013862 -0.246949
0.733051 -0.030219 0.001397
-0.774628 -0.126285 -0.113554
0.054601 0.066788 -0.239897
-0.495511 0.586921 0.038341
0.587387 -0.129687 -0.212029
-0.102110 0.705394 0.041012
0.660333 -0.200385 0.075462
-0.031502 0.636564 0.048688
0.440851 -0.042693 -0.222760
-0.674518 0.008259 0.095587
-0.624643 -0.097843 -0.236796
0.300245 -0.494643 0.159922
0.825099 0.384907 -0.255638
-0.396292 -0.066597 0.107559
0.724909 -0.079173 -0.214255
-0.371129 0.879781 -0.075298
-0.307404 0.320377 -0.270007
0.837758 0.224514 -0.034701
-0.494360 0.042010 -0.247467
-0.699642 -0.413624 0.134394
-0.325365 0.610263 0.045849
-0.413223 0.165135 -0.257465
-0.691156 -0.217105 -0.226895
0.403139 -0.842483 0.045088
-0.625651 -0.150673 0.317149
-0.357060 -0.003723 0.102414
-0.394791 0.127727 -0.253652
0.527861 0.492203 0.072184
-0.582645 -0.075697 0.105053
0.815512 0.312545 0.094078
-0.090396 0.508262 0.203592
0.536853 0.399224 0.254169
-0.363769 -0.080354 -0.233731
-0.252930 0.008797 0.103122
-0.100854 0.605776 -0.292849
-0.657874 -0.303507 -0.218256
0.092428 -0.495745 -0.186869
-0.284997 -0.265284 0.333943
0.025393 0.228530 0.099263
0.169322 -0.098599 0.120712
-0.369457 -0.005114 0.111893
0.451548 0.200591 0.104596
-0.110304 0.537512 0.262380
-0.426430 -0.419483 -0.203300
0.037921 0.234155 0.087383
0.200002 -0.710059 0.178164
-0.378700 -0.149653 0.115604
0.420392 -0.590650 0.171017
-0.299558 0.535371 0.259175
-0.797983 -0.376848 0.129203
0.123605 0.471024 -0.276272
-0.559040 0.082469 0.176660
-0.010181 0.013384 -0.236092
0.041604 -0.740989 0.139535
0.309301 -0.218301 -0.208785
-0.426030 0.386639 0.064847
0.080564 -0.128513 -0.221256
0.120301 -0.262964 0.135125
-0.661671 0.178725 0.066891
-0.574590 0.039571 -0.248683
0.100321 0.050356 -0.237545
0.661434 0.032556 0.117360
0.057750 0.037239 -0.237090
0.009374 -0.084205 -0.226659
-0.569046 0.115665 -0.255664
0.395916 -0.617895 -0.170042
0.404778 -0.445228 -0.185951
0.085422 0.132627 0.097686
-0.459093 -0.417816 -0.204043
0.280350 0.115819 -0.240398
0.841867 0.207967 -0.228917
0.407468 0.056146 -0.232558
0.624195 -0.308982 -0.062290
-0.458268 0.643941 -0.218441
-0.421028 0.519318 -0.290564
-0.276661 -0.515299 -0.191689
-0.153130 0.388550 -0.273576
-0.285092 -0.442471 0.340192
-0.614129 -0.473695 0.137160
-0.148488 0.074714 -0.244288
0.124860 -0.435159 0.151231
0.580325 0.209922 -0.243758
0.494031 0.322204 0.222567
0.120636 0.241355 -0.254953
0.448121 -0.752996 -0.115288
0.046615 -0.709021 0.175308
-0.175806 -0.007100 0.105989
0.182690 0.083691 -0.239165
-0.012129 -0.518609 -0.186622
0.519143 -0.294142 -0.197953
-0.726348 -0.271394 -0.222476
0.423771 -0.783678 0.100524
-0.134982 -0.085702 -0.229117
-0.234620 0.689980 -0.303092
-0.345775 -0.313389 -0.211722
-0.178234 0.185775 -0.255158
0.111665 -0.208110 -0.213289
0.116146 0.239170 0.088324
-0.023452 0.150349 -0.249077
0.196394 0.246415 0.089093
0.416317 -0.188769 -0.209608
-0.657878 -0.147322 0.288196
0.002211 -0.354964 0.177568
-0.256197 -0.470556 0.150071
-0.426709 -0.278247 -0.216448
-0.037906 -0.331778 0.138683
-0.045643 0.291347 -0.262597
-0.325703 0.539206 0.215691
-0.436271 -0.152624 0.114845
-0.262352 -0.615443 0.157629
-0.043696 0.408667 0.069676
0.669253 -0.089786 0.128886
0.158965 -0.111617 -0.221417
0.105269 0.044726 0.209139
0.510294 -0.569230 0.099407
-0.161586 0.145733 0.127599
0.571887 -0.002074 0.324865
-0.760467 -0.081677 -0.044670
0.345514 -0.056535 0.147227
0.373563 -0.520724 -0.179487
-0.174172 -0.500377 0.192531
-0.447402 0.684657 -0.118471
0.255556 0.582806 0.058854
0.681584 0.029276 -0.225126
-0.469645 0.364181 0.066152
0.481814 0.479360 0.072551
-0.219204 0.508756 -0.285950
0.658929 -0.231282 -0.123656
0.169319 0.050623 0.106826
0.163453 0.217004 -0.251917
0.759037 0.337849 -0.252448
0.576238 0.386809 0.082862
0.364032 0.132192 0.102738
-0.036007 0.077251 -0.242500
0.326271 -0.862452 -0.148538
-0.532948 0.359807 0.065421
0.167190 -0.183607 -0.214570
0.018946 -0.044516 0.115213
-0.495415 -0.003249 -0.243274
0.224342 0.629374 -0.275247
-0.415476 0.531908 -0.291636
0.086407 -0.167582 0.125640
-0.249199 -0.467532 -0.195640
-0.368681 0.770856 0.030125
-0.047585 -0.723195 -0.077336
-0.783350 -0.134770 -0.018061
-0.417590 0.370770 -0.276679
0.106549 -0.640491 0.170009
-0.245109 -0.266908 -0.214236
-0.872063 -0.336651 0.113810
0.571398 0.476898 -0.268763
-0.677650 -0.213871 0.161031
-0.754188 -0.337437 0.126323
0.133741 0.008882 -0.233084
0.625867 -0.211298 0.139413
0.411177 -0.785461 0.188980
0.089239 0.207386 0.090797
-0.071568 0.457650 0.084954
0.695635 -0.126303 -0.022426
-0.080762 0.254533 -0.259803
0.689681 0.148703 -0.236094
0.056561 0.043997 0.311307
-0.548874 -0.465876 0.141969
0.200958 -0.128978 -0.219046
-0.314890 -0.085081 -0.232411
-0.441554 0.501698 -0.289294
0.531749 0.238765 0.301731
-0.149631 -0.003171 0.106094
-0.810983 -0.324754 -0.219033
-0.252794 0.133114 0.091556
0.008846 0.678126 0.045546
-0.448313 0.269181 0.075377
-0.153589 0.127094 0.133890
-0.133531 -0.190280 0.123795
0.001301 0.287734 0.140843
-0.120093 -0.299307 0.134183
0.467392 -0.294685 0.208560
0.889035 0.341455 -0.250445
-0.392369 0.615045 -0.298956
-0.145638 0.173873 0.295583
0.627741 0.097409 0.167748
0.092985 0.190582 0.092429
0.025440 0.143865 -0.247594
-0.145612 0.538049 0.261695
-0.064694 0.091120 0.304740
-0.088382 -0.122884 0.118336
-0.215544 0.278055 0.215211
0.142872 -0.485029 0.156196
0.154832 -0.639377 -0.172380
-0.698468 -0.447622 0.039956
0.452540 0.468231 0.073060
-0.125925 0.088217 0.303909
-0.135998 0.231512 0.290393
0.401970 -0.649436 -0.166998
-0.444198 -0.245050 0.329196
-0.742606 -0.033585 -0.017131
-0.156375 -0.306180 -0.208985
0.534032 0.042675 -0.229028
0.569708 -0.041326 0.205551
0.628074 0.354760 0.086777
-0.229169 -0.348909 0.342729
-0.550745 0.415203 -0.213845
0.404761 0.070595 -0.233952
0.496514 0.331608 0.246151
-0.372189 0.856770 0.022067
0.419240 -0.811779 -0.021953
-0.750632 -0.418485 0.131627
-0.349333 -0.326029 0.338438
0.007243 -0.273427 0.134065
0.264082 -0.809816 -0.154555
0.131513 -0.540682 0.161170
-0.440536 0.633497 -0.301540
-0.375243 0.388625 0.065576
0.539402 -0.492193 0.134573
0.329414 -0.359902 -0.195247
-0.217800 -0.228322 -0.217335
-0.373042 0.278641 0.075850
0.493420 -0.237376 0.155927
0.817404 0.399870 -0.130270
0.299735 -0.158495 0.231387
-0.077774 -0.045965 0.265934
-0.092819 0.513049 0.184649
0.161603 -0.766627 -0.160417
-0.667753 -0.437674 0.137206
0.692039 -0.099942 0.130241
0.289570 0.547322 0.062768
0.420794 0.552029 -0.242642
0.204735 -0.645451 0.172237
0.768007 0.309592 -0.249657
-0.484435 -0.011508 -0.242308
0.607322 -0.302989 -0.195543
0.118247 0.359282 0.077185
0.759360 0.018819 -0.222754
-0.102631 0.014520 0.296912
-0.360278 0.156491 0.293339
-0.363426 -0.517469 0.150106
-0.766978 -0.082702 0.065188
0.458692 -0.686770 0.175298
-0.615325 0.283145 -0.009619
0.762901 0.029891 -0.099759
-0.540916 -0.350684 -0.211762
0.044569 0.446483 -0.275410
0.160363 -0.778511 -0.159334
0.468387 -0.019646 0.324638
-0.088476 -0.022115 0.235793
0.626067 -0.185034 0.136972
0.051730 0.283726 -0.260136
0.003260 -0.127533 0.120417
0.004503 -0.147339 -0.220872
0.368228 -0.389217 0.151334
0.088010 0.137674 0.097263
0.330197 0.100623 -0.238087
0.451165 0.559795 0.064515
0.540622 -0.106437 0.256613
-0.037412 -0.481510 0.152625
-0.197206 0.086341 -0.246246
0.465931 -0.292987 0.247221
-0.302948 0.573318 -0.293465
0.041622 0.194717 0.191662
-0.729009 -0.006347 -0.064253
-0.478440 0.093527 0.297073
-0.311041 0.351362 -0.272956
-0.764976 -0.412963 -0.209997
0.231591 0.029314 0.109929
-0.247165 -0.061172 0.109737
0.505990 0.125471 -0.237237
-0.027624 0.356853 0.151814
0.622667 -0.077403 -0.216259
0.296687 0.070094 -0.235849
-0.457174 -0.282013 0.332402
0.083814 0.094329 0.184256
0.508648 -0.325260 0.147909
-0.070115 0.375425 0.278186
0.399875 -0.544902 -0.176764
0.732090 -0.052407 -0.142442
0.062621 -0.158256 -0.218811
0.201916 -0.438636 0.152941
-0.639437 0.137318 0.084209
0.218338 0.050623 -0.235447
-0.069713 0.718604 -0.302789
-0.484217 -0.106344 -0.233479
-0.126422 0.190754 -0.254689
0.129925 0.600300 0.054966
0.766675 0.360616 0.088726
-0.230483 -0.077153 -0.231631
0.886788 0.344487 -0.046594
0.834383 0.322929 -0.249704
0.087476 0.085586 0.182994
0.210328 -0.689610 0.176447
0.154327 0.211461 -0.251565
0.628864 -0.003295 -0.223044
-0.000558 -0.749523 -0.160684
-0.578053 0.051501 -0.249856
0.696731 0.286282 0.296720
-0.018723 0.727070 -0.292265
0.703648 -0.028210 -0.219380
0.617842 -0.206123 -0.204368
0.607997 -0.327483 -0.193252
-0.351043 0.656751 0.041061
-0.173034 0.647596 -0.298040
-0.140026 -0.399565 -0.200001
-0.473773 0.226556 -0.264270
-0.075453 -0.288634 0.133992
0.371522 0.588740 -0.048848
-0.641406 -0.112326 0.245647
0.155227 -0.504239 -0.184949
0.223787 0.068203 -0.236985
-0.186937 0.208651 0.183635
-0.279008 -0.384775 -0.203878
-0.238394 -0.058905 0.109683
0.538062 0.400359 0.273162
-0.010489 0.182942 -0.251876
0.806557 0.242173 0.100465
0.215339 -0.719216 0.179292
0.253505 -0.747559 -0.160538
-0.638041 -0.111091 0.194005
0.605173 0.176038 0.308889
-0.428358 -0.073866 -0.235496
-0.000411 -0.342928 0.312225
-0.282265 -0.343739 0.341292
0.544940 0.337001 0.292827
0.458920 0.522248 0.068148
0.483275 -0.199649 -0.207391
0.614879 -0.159251 -0.208783
-0.107409 0.718159 0.039729
0.772080 0.260283 -0.244995
-0.300152 0.327913 -0.270578
0.063671 -0.233473 0.131362
-0.020542 -0.162196 -0.219940
0.136526 -0.340864 0.142666
-0.580031 0.297585 -0.272791
-0.402595 0.812553 0.003270
-0.102804 0.007849 0.156489
-0.336719 -0.603990 -0.062673
0.097336 -0.195625 -0.214709
-0.717655 0.040581 0.072070
-0.072722 0.776558 0.028091
-0.394265 0.081114 -0.249305
0.054164 0.065972 0.309219
-0.056247 -0.501401 0.167072
0.466984 -0.045044 -0.222071
0.061262 -0.099771 0.118877
-0.189635 0.223197 -0.258845
-0.004811 0.251896 -0.258191
0.272103 -0.045556 0.117625
0.576390 0.216821 -0.244471
0.406413 -0.603467 -0.171196
-0.414922 0.750641 -0.224333
-0.150928 0.382188 0.276103
0.304651 -0.157126 0.152765
0.638759 -0.262667 0.011753
0.398124 0.077685 0.174338
-0.375358 0.004577 0.288589
0.401112 0.573810 0.062310
0.138577 0.138508 0.098095
-0.439006 0.667475 0.038480
-0.317730 -0.053059 -0.235442
0.175420 0.548103 0.060642
0.474891 -0.233528 -0.204389
-0.648593 -0.303184 0.235231
0.431313 0.115775 -0.237678
0.368777 0.264977 -0.252687
-0.679204 0.107192 -0.136826
0.375623 0.034225 0.264037
-0.098519 0.001826 0.238489
0.265988 0.611924 -0.280632
-0.139743 0.043025 -0.241182
-0.701458 -0.257218 0.325700
0.148457 0.242744 -0.254582
0.696585 0.092447 0.112420
0.491693 -0.606682 0.162478
-0.622452 -0.103288 0.312797
-0.044952 -0.557795 0.159588
-0.352220 0.625795 -0.299234
0.233027 -0.407081 -0.192590
-0.125786 0.379308 -0.272224
-0.536477 0.283470 -0.270694
0.300889 -0.388760 0.150080
-0.146168 0.641336 0.220879
0.663559 0.205189 0.305326
0.534905 -0.436175 -0.184452
-0.028423 -0.434205 0.153889
-0.153015 0.431181 0.271507
0.628619 -0.278336 0.080606
-0.277179 0.420954 0.151657
-0.378408 -0.197499 0.163292
0.814866 0.179339 0.049568
-0.687040 0.117513 0.085195
-0.665718 -0.214099 -0.226717
0.313025 -0.497366 -0.182750
0.851093 0.270961 -0.244567
0.133866 -0.780124 0.122053
0.490629 -0.220006 0.332363
0.008119 0.444797 0.067246
0.472621 0.255873 0.126496
-0.355850 0.360564 0.068536
-0.207733 0.312356 -0.267468
0.254659 -0.764648 0.184227
-0.799985 -0.181791 -0.059900
0.049629 -0.473613 -0.189698
0.129616 -0.758134 -0.161783
-0.631004 -0.361554 0.130784
0.592846 -0.375221 0.021358
-0.754254 -0.047324 0.092933
-0.069767 -0.593047 -0.180732
-0.332101 0.640343 0.042928
-0.328445 -0.469282 0.146252
-0.096393 0.525153 0.256682
0.457396 0.239512 0.281931
-0.341743 -0.352518 -0.208008
0.707479 -0.092994 0.006132
0.710176 -0.097132 -0.072507
-0.674818 -0.086903 0.104438
0.424447 -0.542667 0.166625
-0.395162 0.791419 -0.284144
-0.055228 -0.478686 0.313721
0.333929 -0.223405 -0.207867
0.250182 0.563240 -0.282576
0.188794 -0.174086 0.128087
0.715556 0.108517 -0.231889
-0.536922 0.369888 0.064411
0.584532 -0.200244 -0.205514
-0.513059 0.186809 0.106175
0.710308 -0.076335 0.076170
0.677707 -0.132644 0.133026
-0.345514 0.145106 -0.254383
0.091869 -0.624981 0.168302
0.452056 0.132211 -0.238834
-0.309365 0.312489 0.073846
-0.297308 0.466007 0.098846
0.822187 0.192143 0.010681
0.665349 0.423520 0.081049
-0.796738 -0.182943 -0.126773
-0.200892 0.615612 0.253483
-0.538006 -0.515428 -0.196379
-0.162362 0.151071 0.196981
-0.355064 0.052794 0.273207
-0.661475 -0.178360 0.127569
-0.202647 -0.112211 -0.227868
-0.425428 0.201817 0.280175
0.122894 0.431757 0.070524
0.630492 -0.301336 -0.120191
0.047078 -0.340067 0.140983
-0.716530 0.036219 0.020114
-0.302872 0.512373 -0.287792
0.290015 -0.178194 0.263421
-0.148693 0.117048 0.164803
0.281754 0.465383 -0.272902
-0.093098 -0.399912 0.349923
0.577391 -0.416597 -0.000740
-0.347550 -0.416676 0.343887
-0.349906 -0.145074 -0.227459
0.587274 -0.395762 -0.027456
-0.703037 -0.279393 0.253683
-0.260315 -0.411280 0.347972
0.151719 -0.236615 0.133239
-0.017272 -0.568291 0.161063
-0.123039 0.062563 0.290306
-0.317490 0.204286 -0.259386
-0.862302 -0.385735 -0.214282
-0.471677 -0.146185 0.318058
-0.696794 0.090195 0.056611
-0.070859 -0.526304 0.249437
-0.415277 -0.360795 0.340487
-0.518862 0.195915 0.276846
-0.630189 0.230841 -0.121728
-0.735465 -0.018276 -0.034587
-0.121176 0.654046 0.045448
-0.400631 0.814854 -0.015385
-0.640818 -0.426469 0.136648
0.391757 -0.084450 0.329290
0.207184 -0.317492 -0.201392
-0.695821 0.085941 0.008185
0.527576 -0.547219 -0.052062
-0.585685 -0.309105 0.332611
0.456208 -0.715807 0.009142
-0.175220 -0.361638 0.344884
0.780372 0.073706 -0.096259
0.241243 -0.167645 0.128431
0.661181 -0.183841 -0.205662
0.648308 -0.241582 -0.007141
-0.267842 0.394888 0.073606
-0.608163 -0.221985 0.324100
-0.475930 -0.139448 -0.230249
-0.739522 -0.017692 0.042743
0.129463 -0.742610 0.179924
0.347186 0.138076 0.101888
0.522477 -0.159487 0.198187
-0.268503 -0.386220 0.345493
0.016543 0.559980 -0.286476
0.654815 0.350298 0.087673
-0.304805 -0.014669 -0.238782
-0.413461 -0.345446 0.339091
-0.235080 0.077482 -0.246103
-0.362769 -0.595727 -0.185754
0.606952 0.040004 0.125325
-0.212571 0.794673 -0.312437
-0.230988 0.031148 0.101437
-0.122297 0.577328 0.073590
-0.604691 -0.436264 0.138209
0.581059 0.084260 0.316996
0.409774 -0.540662 -0.176980
-0.048359 -0.170386 0.123476
-0.481234 -0.154224 0.320077
-0.617328 -0.342807 -0.213869
-0.466122 0.368145 0.065847
-0.487187 -0.033725 0.102864
0.412926 0.157260 -0.241869
-0.344966 0.228048 -0.262091
0.534867 -0.402159 0.155536
0.046554 -0.047374 0.113737
0.266005 -0.178895 0.129923
0.547532 -0.093573 0.225573
-0.276244 0.830829 -0.307354
0.596122 0.018838 0.166680
-0.568792 -0.484937 0.143384
0.043204 -0.272556 0.134631
-0.527283 0.165874 0.210350
0.009789 0.492015 -0.280273
0.846215 0.260837 0.076773
0.122846 0.671571 -0.265991
-0.398484 0.542424 0.050846
-0.149381 0.455645 0.269295
0.507573 0.363318 -0.259342
-0.241956 0.169622 -0.254801
-0.072219 0.460862 0.118067
0.330750 -0.386321 -0.192764
-0.101501 0.099461 0.303302
-0.375369 -0.011017 0.175527
-0.515485 0.181728 0.112966
-0.607059 0.280377 -0.178635
-0.292417 -0.345161 0.341242
-0.623345 -0.321434 0.142478
-0.498322 0.548881 -0.187319
0.534965 -0.130020 0.187248
-0.486315 -0.257173 -0.219481
0.571114 0.488616 -0.267049
-0.198283 -0.038397 0.108497
0.248807 -0.012858 -0.228991
-0.796728 -0.216186 0.114275
0.526329 -0.556343 -0.095867
-0.037846 0.177065 0.297225
0.475964 -0.664470 0.026105
0.356582 -0.018674 0.222844
-0.456965 -0.082833 0.107978
-0.100869 0.497592 -0.282783
0.140678 0.064357 -0.238122
-0.267419 0.334321 0.072569
-0.571207 0.240458 0.075838
-0.130922 0.598173 0.081554
-0.516746 -0.314604 0.334363
0.839746 0.242571 0.060631
-0.212417 0.399726 0.273365
0.564529 -0.451792 -0.024658
0.748019 -0.011411 -0.131644
0.186813 -0.193631 -0.213284
-0.501448 0.568486 0.011396
-0.251861 0.104831 -0.248950
-0.546141 0.106429 0.118318
0.556272 -0.475245 -0.046263
0.575036 -0.425988 -0.026525
0.623632 0.079644 0.112745
0.554876 -0.062773 0.316979
-0.460822 0.670733 0.022170
-0.531579 -0.417246 0.137755
0.556081 -0.443828 -0.183359
-0.375743 0.662288 -0.303054
-0.656928 -0.141565 0.312901
0.518099 -0.566641 -0.022402
0.483319 -0.663098 -0.096424
-0.201075 -0.387706 -0.202203
0.474507 -0.050327 -0.221444
0.303688 0.261730 -0.253556
-0.472835 -0.543144 -0.192627
0.337568 -0.554910 -0.176953
-0.384051 -0.183602 -0.224488
-0.146411 0.130278 -0.249421
-0.134871 0.615204 0.233680
-0.131981 -0.055246 -0.231897
0.504684 -0.583625 0.095921
0.258620 -0.536594 -0.180078
0.876496 0.322129 -0.248872
0.025952 -0.183606 0.126043
0.051698 0.572531 0.056143
0.493447 0.328199 -0.256328
0.201601 -0.737544 -0.162404
-0.130339 -0.528300 0.155307
0.615010 -0.306451 0.121565
-0.446849 0.614358 -0.299873
0.084157 -0.046682 0.114349
0.645620 0.357248 0.292754
-0.047612 -0.730434 -0.161921
0.452328 0.304460 0.088296
-0.374700 0.839406 -0.304225
0.287271 -0.175089 0.335397
-0.358983 -0.097919 -0.232010
0.761813 0.048135 0.052365
-0.469414 0.635767 -0.077022
0.810116 0.203886 -0.239063
0.192247 -0.327101 -0.200767
0.572928 0.409733 -0.262485
-0.000390 -0.358287 0.200292
-0.317432 0.234083 0.080997
-0.103566 -0.685960 0.090632
0.129456 -0.173593 0.126974
0.325906 0.609861 0.057602
-0.796563 -0.170104 -0.036669
0.481030 0.452001 -0.268072
-0.428419 0.721497 -0.192869
-0.043843 -0.156810 -0.220860
0.487410 -0.243564 0.219250
0.572990 -0.066442 0.124982
-0.352543 -0.326634 0.338436
-0.169536 -0.367820 0.345561
0.393361 0.575448 -0.099979
-0.362352 -0.233972 -0.219410
-0.026579 -0.278666 -0.209210
0.145311 0.325000 -0.262293
-0.852706 -0.311393 -0.051458
-0.001262 0.616450 -0.292051
0.757427 0.023879 -0.044814
-0.107069 -0.643139 -0.176742
-0.842913 -0.285830 -0.042221
-0.341692 0.168061 0.284882
0.078265 0.255803 -0.257060
0.108322 -0.696315 -0.167919
0.681103 0.318501 0.296998
-0.356554 0.139869 0.294953
-0.211370 0.180490 0.087892
0.336746 -0.398208 0.151604
-0.698830 -0.267363 0.154070
-0.585807 0.226123 -0.266245
0.692493 0.258868 0.173960
-0.377902 0.853131 -0.146840
0.160879 -0.453555 -0.189564
-0.405969 0.243106 -0.264590
0.373095 0.033953 0.307602
-0.572307 -0.005583 -0.244440
0.253429 -0.641263 0.172723
0.615815 0.096733 -0.232587
0.200031 0.166038 0.096638
0.056384 0.242324 -0.256199
-0.081336 0.306125 0.284433
0.636986 -0.273537 -0.035259
0.011262 -0.574435 0.162148
-0.367421 0.874260 -0.182191
-0.509329 0.195407 0.101421
0.409939 -0.072399 -0.220552
0.369107 -0.815567 0.191025
0.747089 0.195756 0.103715
0.382407 -0.530376 0.164725
-0.619477 -0.139259 0.316198
0.604527 0.340268 -0.255453
-0.356607 0.091239 -0.249570
-0.873722 -0.395986 -0.191681
-0.575549 0.359471 -0.171811
-0.019281 -0.574230 -0.181575
-0.825669 -0.302319 -0.221385
0.056723 0.154568 0.105335
-0.597341 -0.186937 -0.228014
-0.049977 0.028771 -0.238240
0.473069 0.491793 0.071237
0.460627 -0.307501 0.237363
-0.140943 0.098057 0.152502
-0.472992 0.630895 -0.047943
-0.045741 0.154812 -0.249893
-0.413184 -0.523955 -0.193340
0.176080 -0.515364 0.159616
-0.207333 0.256367 0.171073
-0.602209 -0.332603 -0.214547
-0.617390 0.002283 0.097171
-0.568833 0.407761 0.057953
-0.662629 0.151785 -0.111526
0.352550 0.393995 -0.264985
-0.124529 -0.534696 -0.187147
-0.252019 0.660552 -0.300666
-0.274717 -0.068285 0.109903
0.128067 0.214319 0.090851
-0.454144 0.002330 0.305996
-0.165244 0.573027 -0.290960
0.447906 -0.684223 0.180220
-0.003780 0.689248 0.044284
0.614305 0.205928 -0.242775
0.587047 -0.087303 0.127176
0.293091 0.465362 -0.272696
0.114228 0.320703 -0.262452
0.640885 0.403906 0.082434
-0.437658 0.011177 0.305470
0.527749 0.387955 0.092711
0.105411 0.495119 -0.278841
-0.177801 0.328157 -0.268400
0.760671 0.040495 0.017437
-0.498922 0.405393 0.061791
-0.488594 0.561157 -0.273397
0.363819 -0.429407 0.154995
0.874751 0.353452 -0.251818
-0.270069 0.727150 -0.307188
-0.088869 -0.026731 0.125744
0.204725 0.178347 0.095577
-0.652054 -0.323583 -0.216283
0.301919 -0.425790 -0.189610
-0.029988 0.353529 -0.268101
0.499199 0.258209 0.299336
-0.057348 0.586689 0.052864
-0.298526 0.784542 0.030114
-0.686151 -0.375112 -0.212101
-0.556546 0.400264 -0.217855
-0.245104 0.181004 -0.255917
-0.019733 -0.391423 0.308086
-0.736373 -0.375161 -0.213000
-0.533870 0.367816 -0.278496
-0.178234 0.185217 0.127975
0.650293 -0.239895 -0.030642
0.656410 0.337662 0.104959
0.114142 -0.791581 -0.158949
-0.351179 0.833714 -0.318564
-0.356565 0.025322 0.100718
-0.459357 -0.010538 0.232036
0.825628 0.340223 0.091684
0.518781 -0.169762 0.190134
-0.505547 -0.144721 0.112863
-0.130959 -0.317369 0.341561
-0.682476 -0.223559 0.117016
0.694915 -0.139336 -0.104119
-0.034366 -0.323972 0.138020
0.145412 0.086633 0.103045
-0.826492 -0.351763 -0.216799
-0.342568 -0.128160 0.114254
0.334197 0.009851 0.113586
-0.728546 0.015725 0.087735
0.435057 -0.438496 -0.186032
0.343369 -0.578808 0.168530
0.207427 -0.677493 -0.167887
-0.102555 0.286043 -0.263127
-0.407432 -0.401769 0.232813
-0.194697 -0.484001 0.285894
0.069436 0.627022 -0.291763
-0.000528 -0.361084 0.182465
0.098525 0.057035 0.136183
0.593599 -0.255943 0.142987
0.442645 -0.081775 0.329956
0.218351 0.623566 -0.288762
0.462432 -0.514497 -0.178468
-0.208324 0.635119 0.045641
0.790091 0.111465 0.002912
-0.500727 0.469511 -0.287363
0.394206 -0.156643 0.336052
-0.776661 -0.362111 0.128215
0.413954 0.392102 0.079450
0.087250 -0.006550 0.204649
0.524645 0.097625 -0.234310
-0.559310 0.400615 -0.165519
-0.017289 -0.391886 0.260699
0.091338 0.675735 -0.295902
0.621353 0.315555 -0.252850
0.499000 -0.593080 -0.170497
0.210650 0.525017 -0.279730
0.012418 0.198699 -0.252931
0.210351 0.309121 0.083509
-0.248011 0.354632 0.207560
0.022643 0.402954 -0.271754
-0.594618 0.085021 0.089882
-0.710341 -0.123141 0.107171
0.434200 0.311670 -0.255855
-0.622520 -0.462007 -0.202870
-0.472527 0.291022 0.072908
-0.505659 -0.281087 0.331443
0.528366 -0.533446 0.033745
0.066777 0.698641 0.044679
-0.655043 0.150335 -0.258720
-0.310917 0.555085 0.057159
0.175296 -0.526829 0.160669
0.104788 0.193806 -0.250814
0.571470 -0.064024 0.124729
0.277074 -0.541693 0.163883
-0.163542 -0.655078 0.165484
0.273233 0.554505 0.061806
0.715615 -0.067268 0.046420
-0.492351 0.224401 0.284644
0.567139 -0.436820 -0.183812
-0.553630 0.375602 -0.279576
0.517045 0.348625 0.291243
0.062864 -0.709452 -0.167514
0.349254 -0.032932 0.251299
-0.671988 -0.198684 0.169349
0.311440 -0.558013 -0.177134
0.695857 0.428511 -0.262021
0.398410 -0.237663 0.343667
-0.313894 0.574127 0.049418
0.289061 -0.197910 0.132108
0.459493 -0.410107 0.154920
-0.025985 -0.401858 0.344924
-0.776931 -0.351782 -0.215905
-0.579085 0.044484 0.261882
0.030086 0.585811 0.054519
0.405995 -0.110233 -0.217102
-0.447001 0.702263 0.002190
0.176218 -0.424498 0.151163
-0.248533 0.171312 -0.255077
0.070662 0.474944 -0.277589
-0.462771 0.341133 0.068421
0.161167 -0.325613 0.141690
-0.031145 -0.581472 0.162040
0.378351 -0.166815 -0.212334
-0.349431 0.060421 0.227134
-0.189602 -0.391629 -0.201631
-0.799232 -0.159034 0.091823
-0.534576 0.138099 0.140004
-0.597978 -0.508758 -0.195021
-0.213286 0.268012 0.122176
-0.003918 -0.362651 -0.200987
-0.299067 0.499311 -0.286508
0.587762 0.017801 0.309768
-0.747570 -0.128057 -0.236196
0.068756 0.419242 -0.272440
0.869578 0.375127 -0.170627
-0.213731 0.643987 0.044719
0.433623 -0.771460 0.011789
-0.782414 -0.184279 0.111563
0.512795 0.135716 -0.238068
-0.749457 -0.414908 -0.209537
-0.373045 -0.001643 0.201740
-0.783284 -0.314897 0.123702
0.179761 -0.660439 0.173183
-0.473668 0.600905 -0.253596
-0.684281 -0.474189 -0.202459
0.089829 -0.754098 0.180280
-0.239702 0.329356 0.096903
0.118614 -0.344523 -0.200470
0.280931 -0.002822 0.113807
-0.652020 -0.141334 0.226168
-0.321992 0.158745 0.293819
-0.684025 -0.365265 -0.212979
0.147868 0.152559 0.096954
-0.232122 -0.639080 0.025737
0.439223 -0.202509 0.341130
-0.041605 -0.444929 0.313469
-0.330057 -0.284863 -0.214093
0.378879 -0.880379 0.118481
0.048677 0.652008 0.048693
-0.119262 0.570798 0.086800
-0.268267 -0.243114 0.332181
0.362746 -0.281523 -0.201941
-0.487539 -0.230149 0.327029
0.250304 -0.628327 0.171463
0.816276 0.171639 -0.031750
0.038192 -0.020359 0.274084
0.426617 -0.064420 -0.220994
-0.282785 0.861595 0.020441
-0.633977 -0.102893 0.180321
-0.340835 -0.225912 0.329274
0.387032 -0.888755 -0.000820
-0.677927 -0.417501 -0.208009
-0.184909 0.639981 -0.297545
0.079023 0.155717 0.095422
-0.004315 -0.336781 0.318731
0.593730 -0.362800 0.095658
-0.184052 0.735653 -0.306432
0.725124 -0.052609 -0.018410
-0.374709 0.055521 -0.246571
-0.453710 0.657221 0.039170
-0.052072 0.006379 0.312853
0.109228 0.656280 0.049385
-0.060672 0.435739 0.162679
-0.078408 -0.049305 0.169861
-0.300985 0.424189 0.063602
-0.432850 -0.521482 -0.193924
0.578511 -0.018085 0.215765
0.709103 -0.117436 -0.200658
0.466816 -0.705920 -0.110160
0.318734 -0.868451 -0.148115
0.708528 -0.107036 -0.114766
-0.350111 0.084895 0.300185
0.108509 0.385564 -0.268591
0.521888 -0.029170 -0.222561
-0.497038 0.097484 -0.252677
0.135711 0.285385 -0.258779
0.231239 -0.496912 -0.184263
0.567469 -0.192142 -0.206575
0.713729 -0.069832 0.061767
-0.079991 0.493098 -0.281989
0.018554 -0.011567 0.315794
-0.386523 -0.272876 0.332823
0.474604 -0.673396 -0.014227
-0.645633 -0.114466 0.306250
-0.778145 -0.107240 0.088141
0.498047 -0.290067 0.144443
0.274632 -0.235156 0.241124
-0.133707 0.065344 -0.243150
0.587871 -0.071015 0.125675
0.167183 -0.686106 0.175345
-0.341039 -0.445261 -0.199365
0.257665 -0.139581 -0.217040
-0.267025 -0.596529 0.159198
-0.700635 0.053605 -0.139961
0.147299 -0.608717 0.167786
-0.149224 0.801377 -0.046450
0.023335 -0.191184 -0.216453
-0.374418 -0.116766 0.112621
-0.080356 -0.042210 0.219017
-0.100374 0.619970 0.048993
-0.339659 0.681886 -0.304228
-0.663871 -0.164521 0.271246
-0.552235 -0.442324 0.139717
0.015722 0.038139 -0.237930
-0.229971 0.445400 0.268799
-0.497603 -0.501359 -0.196961
0.522133 -0.166440 0.153876
0.179135 -0.526859 0.160741
-0.180005 0.232638 0.289497
0.250820 -0.075741 0.120051
0.380290 0.050630 0.299107
0.204676 -0.804125 0.179039
0.670825 -0.183609 0.008290
-0.365890 0.416654 0.063136
-0.075819 0.470352 0.137050
-0.454873 -0.029606 0.103063
0.088169 -0.648759 0.170448
-0.024827 -0.423937 0.163696
-0.380889 0.481014 0.056877
-0.536458 0.010858 0.114723
0.213862 -0.239233 0.134600
-0.257442 -0.463495 -0.196164
0.359986 -0.043913 0.324946
-0.036032 -0.428018 0.335918
0.391706 -0.685649 0.179341
0.785031 0.080046 -0.134147
-0.816880 -0.414041 -0.210831
-0.352172 0.261503 0.077821
0.414473 -0.819664 0.006648
0.198219 0.649139 -0.168988
0.725433 -0.043110 0.045011
-0.327295 0.539905 0.154684
-0.309918 0.500735 0.194774
0.182393 0.373595 0.077007
-0.305406 0.542714 -0.290661
-0.531740 -0.162496 -0.229109
0.297476 0.516433 -0.277370
-0.418046 0.067547 -0.248470
-0.381810 0.842343 -0.154793
0.416348 0.555499 -0.223319
-0.222433 -0.266281 -0.213886
-0.122269 0.048161 -0.241345
-0.328814 0.642770 0.042761
-0.269536 -0.211523 -0.219829
0.682924 0.258821 0.302584
-0.383295 0.491111 0.055894
0.298452 0.569858 -0.282324
-0.045103 -0.706508 0.129154
-0.269588 -0.445865 -0.198023
-0.736320 -0.048912 -0.241694
-0.007943 -0.320785 0.138199
0.481704 -0.261612 0.190944
0.579696 -0.418235 -0.054156
0.411675 0.399585 -0.264442
0.412283 -0.814778 0.081601
-0.535921 -0.106197 -0.234423
-0.333494 0.500405 0.055925
-0.149671 0.120544 0.188198
-0.190305 0.361755 -0.271751
0.606550 0.355712 -0.256853
0.145283 0.230333 0.089670
-0.772905 -0.102156 0.030665
0.743963 -0.005522 -0.015801
-0.494936 0.556415 -0.193603
-0.787471 -0.144636 -0.015479
0.492551 0.265294 0.298557
-0.363042 0.176670 0.291412
0.301503 -0.319941 0.143687
0.405040 0.554497 -0.278977
0.602370 0.311278 0.296254
-0.501994 -0.497157 0.145723
-0.325937 0.531758 0.056923
-0.818012 -0.240425 -0.161021
0.070401 0.211893 -0.253115
-0.044029 0.511418 0.060108
0.218082 0.414230 0.073867
-0.791253 -0.145857 0.043793
-0.045313 -0.461698 0.258482
-0.356261 0.130608 0.295820
-0.131241 -0.344219 0.344054
0.516807 0.263835 0.299129
0.021830 -0.267209 -0.209406
0.220685 -0.719530 -0.163737
0.614470 -0.310127 0.104599
0.399150 0.112101 0.105240
-0.477246 0.295360 -0.270735
-0.676788 0.129510 -0.018238
0.283073 -0.189268 0.308050
-0.408151 -0.188314 -0.224483
0.015703 0.282240 0.082509
-0.070479 0.648343 0.046890
0.092598 -0.300564 0.138126
0.303385 -0.706053 0.179651
0.039243 0.362289 -0.267671
0.405022 0.091857 0.152994
-0.271135 0.406360 0.146377
-0.366642 0.084584 0.299916
-0.245040 0.345575 0.167616
0.030793 -0.427214 0.148800
0.372772 -0.093982 0.329835
-0.603737 0.153708 -0.259829
-0.369684 0.882117 -0.084363
0.319251 0.215032 -0.248931
-0.751427 -0.141335 0.108125
0.525139 -0.530932 0.110138
-0.696187 -0.317711 0.125531
-0.282149 -0.154750 -0.225339
-0.246465 0.613387 0.046977
0.432631 -0.069912 -0.220375
-0.102174 0.538321 0.246075
0.705103 -0.091898 0.056897
-0.226216 0.438424 0.269516
0.573499 -0.116063 0.129608
0.476837 0.525368 0.068180
0.391846 -0.856898 0.143847
-0.156561 0.345446 -0.269626
0.771119 0.256818 0.098465
0.063416 0.334195 0.078533
0.267043 0.496870 0.067058
0.212609 0.147901 0.098552
0.572884 -0.250966 -0.201004
0.310129 0.612276 0.057094
-0.379639 -0.486907 0.146971
-0.505524 0.524773 -0.232674
0.046621 -0.032869 0.114348
0.519910 0.335520 -0.256533
-0.620220 -0.112143 -0.235386
0.458311 -0.211332 0.342294
-0.314779 0.531350 0.259275
0.278768 -0.524798 -0.180813
-0.294012 -0.453541 0.168609
0.046518 0.006861 -0.234465
0.100443 -0.764320 -0.161732
-0.223639 0.237204 0.082394
0.566612 0.273229 -0.249896
0.110749 0.295500 -0.260170
0.782093 0.070074 -0.153644
0.673702 0.463182 -0.075538
0.336477 -0.268674 0.144423
0.341242 0.487538 -0.273893
-0.236671 0.787054 0.030993
0.256512 -0.044717 -0.225888
-0.191057 -0.190129 -0.220408
0.467288 -0.395159 -0.189485
0.172805 -0.669792 -0.169227
0.426617 -0.145415 -0.213457
0.690812 -0.154396 -0.139587
-0.124644 -0.128332 -0.224964
-0.369672 0.030317 0.304912
0.319979 0.247198 0.091244
0.398540 -0.353591 -0.194590
-0.490500 0.559355 -0.252164
-0.599058 0.129179 -0.257462
0.306947 0.479854 -0.273795
0.511879 -0.596566 -0.127705
-0.380481 0.859801 -0.051942
-0.071072 -0.532055 0.211515
-0.210071 0.265044 0.214446
0.113421 -0.589927 -0.177727
0.134779 -0.244488 0.133667
0.426496 0.470665 0.072365
-0.504576 -0.539100 -0.104498
0.602605 -0.240125 -0.201478
0.265126 -0.469065 0.156910
-0.239352 -0.395746 -0.202143
0.646709 -0.231843 0.092405
-0.342160 0.584860 0.047910
0.112422 0.027151 0.196886
-0.356671 -0.371684 0.342554
-0.747952 -0.275432 0.120666
0.251571 0.476366 0.068688
-0.244617 0.346387 0.203594
0.815642 0.185908 0.083300
0.184621 -0.681869 0.175264
-0.339043 0.091002 0.262110
0.646586 -0.137514 -0.210235
-0.648283 -0.142862 0.147743
-0.179918 -0.618880 -0.180310
-0.253380 0.361207 0.085556
0.399140 -0.833460 0.182672
0.237236 0.365963 -0.264451
0.616473 -0.071387 -0.216930
0.492326 -0.043251 0.327265
0.514806 0.369421 0.191261
0.644342 0.187282 0.308547
-0.319482 0.127918 0.177843
0.662186 0.181609 0.158788
-0.257410 -0.039874 -0.235584
-0.203654 0.368464 0.276432
-0.235419 0.731952 0.036143
0.527301 0.308015 0.295207
0.186487 0.217113 -0.251513
-0.107602 0.277517 0.286623
0.153476 -0.340207 0.142910
-0.391738 -0.505226 0.148458
-0.215456 0.635410 0.045486
-0.450808 0.669971 -0.163786
0.754923 0.029001 0.037511
0.848362 0.252827 -0.020105
0.308107 -0.522795 -0.180472
0.534150 -0.535881 -0.088147
0.528006 -0.537111 0.013610
-0.394654 0.320678 -0.271605
0.641172 -0.264844 -0.047534
0.649142 0.112758 0.109676
0.184455 0.673334 0.047777
0.401535 0.375247 -0.262359
-0.612059 0.104732 0.087734
0.266569 0.296401 -0.257450
-0.137270 0.531414 -0.286585
0.415900 -0.020137 0.323739
-0.175319 0.646029 0.045220
0.083870 0.096969 0.239270
0.346586 -0.033661 0.294059
0.585023 -0.220693 0.139552
-0.347360 -0.019976 0.104101
0.334795 -0.562457 0.166854
-0.027432 -0.422022 0.224532
0.813304 0.183048 0.104654
-0.564655 0.304986 -0.273203
0.643571 -0.269475 -0.124385
0.417223 0.363787 -0.261011
0.280489 0.605791 -0.283163
-0.177216 0.098496 0.096137
-0.195258 0.047762 0.100533
0.081717 0.103627 0.270069
0.372982 -0.284039 0.141632
-0.309162 0.433442 -0.280560
0.888452 0.364795 -0.201344
-0.111525 0.026218 0.110757
0.518996 0.481236 0.073045
-0.812557 -0.301916 0.121968
0.827925 0.180216 -0.179313
0.439053 0.543498 0.065813
0.157834 0.227397 -0.252985
-0.665112 -0.184202 0.150656
0.529461 -0.524593 0.078318
0.084316 0.089538 0.112827
0.002871 0.676333 -0.297549
-0.299955 -0.586270 0.157651
-0.462404 0.180389 0.289278
-0.639712 -0.103367 0.280202
-0.151030 -0.500559 0.300548
0.839618 0.210875 -0.167288
-0.247330 0.350819 0.163959
0.211633 -0.537155 -0.180871
-0.302432 -0.229170 0.330268
0.380762 0.028410 0.129217
0.233412 -0.481818 -0.185629
-0.135591 0.609398 0.084677
0.366681 0.001905 0.190381
-0.312280 -0.275652 0.334417
-0.193804 0.510543 -0.285660
0.421743 -0.780693 0.158742
0.469070 -0.288028 0.226683
0.352888 -0.588368 0.169590
-0.222503 0.837369 0.024706
-0.550928 0.242686 -0.267159
0.337176 -0.620321 -0.170873
0.348956 -0.765681 0.186020
0.029049 -0.220614 0.129543
0.276860 -0.438185 0.154247
0.150728 0.105234 0.101410
-0.555954 0.429254 -0.017960
-0.024522 -0.033120 -0.232023
0.277144 0.264278 -0.254271
-0.506857 0.235375 0.077469
0.440169 0.181218 0.168873
0.770462 0.302934 -0.248993
0.874509 0.305943 -0.105349
0.044905 0.330576 0.078536
0.594134 0.439055 0.078322
-0.403605 0.774052 -0.258177
0.646221 -0.267811 -0.160045
-0.145339 -0.250759 0.129211
-0.370908 0.675606 0.038949
0.365790 -0.612867 0.172102
0.373168 -0.708451 0.181130
0.800673 0.347408 0.090566
-0.211222 0.204794 -0.257521
-0.519416 -0.157957 -0.229309
0.455589 -0.004792 0.323025
0.126027 -0.661777 -0.170814
-0.379443 0.871879 0.017094
-0.080623 -0.040095 0.248394
-0.168431 -0.042630 -0.233727
0.448479 0.537465 0.066544
-0.013593 -0.393174 0.184742
-0.318976 0.520633 0.163607
0.587297 -0.408101 -0.117490
-0.107792 -0.068462 -0.230232
0.117853 -0.746475 0.180075
0.575540 -0.437216 -0.117159
-0.406923 0.406305 0.063361
0.291544 -0.177993 0.237321
0.479474 -0.414351 0.155674
-0.137640 0.799153 0.031648
-0.640135 0.203934 -0.137979
0.401554 -0.572319 0.168972
-0.592149 -0.091736 0.106374
-0.202597 0.800349 -0.312448
-0.692950 -0.026386 -0.244675
-0.556836 0.376708 -0.279736
-0.062120 0.435657 0.092965
0.177919 -0.337482 -0.200058
0.116240 -0.605910 0.166966
-0.544982 -0.400021 0.135911
-0.121026 0.435645 -0.277381
-0.730039 -0.405505 -0.210063
-0.064636 0.424467 0.273721
0.271604 0.216870 0.093196
0.533860 -0.136247 0.161918
-0.370418 -0.011291 0.102878
-0.628527 0.215270 -0.264768
-0.170901 0.171258 0.195916
-0.732597 -0.012588 -0.044939
-0.095323 0.454762 -0.278697
-0.343755 -0.567502 0.155116
0.514877 -0.572381 -0.006045
0.113336 -0.478879 0.155092
0.085925 0.081851 -0.240735
0.266699 -0.487362 -0.184514
-0.098949 -0.095638 -0.227544
0.655711 -0.227025 -0.034775
-0.697925 0.054861 -0.179650
0.419929 0.543915 -0.277724
0.580284 0.362652 0.291076
-0.367278 0.021971 0.269370
0.458586 0.435695 -0.266958
0.197751 -0.710073 -0.165030
-0.284789 -0.042715 0.107342
0.682161 0.246112 0.267438
-0.161678 -0.684846 -0.172929
0.527702 0.394437 0.154779
-0.527934 -0.152208 -0.229997
-0.177134 0.795939 -0.242711
-0.598406 0.198050 0.079295
0.608293 -0.020448 -0.221818
-0.239557 -0.517989 -0.190771
-0.674451 -0.085495 0.104313
-0.224597 0.571476 0.257163
-0.632266 0.130377 -0.258171
-0.391579 -0.470969 -0.197882
-0.664402 -0.171234 0.232053
0.610505 0.473885 -0.251446
-0.404029 0.666130 -0.303920
-0.647290 -0.119922 0.296472
-0.394251 0.393235 -0.278349
-0.508384 -0.119826 -0.232659
0.597965 0.023183 0.165040
0.208713 0.332243 -0.261826
-0.319224 0.552194 0.063428
0.546189 0.320522 -0.254664
0.614337 0.275479 -0.249247
-0.166607 0.509693 -0.285091
0.841367 0.234620 -0.026314
-0.832672 -0.259628 -0.036391
0.449538 0.515621 0.068596
-0.555147 0.395588 -0.277017
0.824360 0.262184 0.098923
0.874898 0.297587 -0.173048
-0.239365 0.328434 0.094458
0.615727 0.332565 -0.254534
-0.594158 0.315460 -0.156224
0.286479 0.486034 0.068416
-0.036941 0.219821 0.293263
-0.646446 0.187760 -0.141778
-0.392425 0.596402 0.045932
-0.085366 0.628812 -0.294715
0.564238 -0.471727 -0.164218
-0.554113 -0.287423 -0.217886
0.649831 -0.155799 -0.208475
-0.635990 -0.099673 0.239980
-0.145532 0.557005 -0.289115
0.002423 0.191411 0.296615
-0.420192 0.726354 -0.305805
-0.366157 0.756248 0.031530
0.598621 0.028002 0.188234
-0.272157 0.413751 0.244906
-0.267195 0.402783 0.260634
-0.213134 -0.635496 0.157917
0.345424 0.091449 0.106195
0.274306 0.630070 0.054793
0.320417 -0.497913 0.160589
-0.551446 -0.021104 0.100534
0.780471 0.267497 -0.245515
0.132334 -0.070764 -0.225698
-0.802573 -0.169059 0.079193
0.188364 0.023412 -0.233454
0.487316 -0.237940 0.261779
-0.480274 -0.032269 -0.240301
0.054492 -0.164772 -0.218351
0.580509 -0.411211 -0.017786
-0.531124 -0.342979 0.330011
-0.829374 -0.263257 -0.122158
0.624750 -0.220366 0.140236
0.415351 -0.817373 0.007489
-0.558016 0.422973 -0.026434
0.042381 0.213600 -0.253778
-0.479800 0.607019 -0.098725
-0.122270 0.050137 -0.241529
-0.582256 0.367290 0.005817
0.490118 -0.496246 0.163487
0.261652 0.053862 0.108186
0.046296 -0.116813 -0.222961
-0.091541 0.483293 0.267763
-0.728768 -0.009873 -0.094190
0.893435 0.340420 -0.195872
-0.321359 0.335484 0.071491
0.818319 0.179536 -0.011198
-0.678156 0.112361 -0.118148
0.341991 -0.059983 0.185660
0.022099 -0.643597 -0.174376
0.686915 -0.167031 -0.161160
0.606183 -0.348384 -0.023981
-0.522363 0.263212 0.074600
0.071066 0.129464 0.303614
0.293465 0.417433 0.074925
0.282136 -0.175461 0.129894
0.084984 -0.406110 0.147811
0.641809 0.148747 0.287204
0.022369 0.027941 -0.236862
0.173747 0.122535 0.100214
0.363795 -0.125095 -0.216478
0.851797 0.285822 -0.245937
-0.410427 -0.420685 -0.202900
0.203605 -0.037791 0.115670
-0.710232 -0.185009 -0.230225
0.773977 0.043150 -0.224755
0.587454 -0.044099 0.123163
0.494403 -0.601543 0.150986
0.856602 0.387716 -0.085519
-0.112010 -0.291449 -0.209558
-0.015423 0.540971 -0.285282
0.138579 0.201502 0.092233
0.548937 0.171056 -0.240706
-0.108480 0.552008 0.221058
0.889894 0.379465 -0.023334
0.555773 0.477272 0.074076
0.573700 -0.416880 0.063697
-0.302393 0.478587 0.109306
0.362792 0.009054 0.312356
-0.595510 0.091306 0.089281
0.177562 0.664577 -0.087193
-0.168412 0.166781 0.224112
0.401495 0.325015 0.085469
0.241429 -0.156313 0.127380
-0.609907 0.024626 -0.247928
0.323924 -0.170950 0.336119
-0.363167 -0.018348 -0.239490
-0.569719 -0.344129 0.132918
0.503085 -0.453167 -0.183443
-0.131328 0.606315 0.223949
-0.000102 0.501528 -0.281336
0.071815 0.082887 -0.241085
-0.193306 0.228328 0.274489
-0.333527 0.163795 0.293141
-0.616456 -0.323900 0.146489
-0.043567 0.573159 0.054371
-0.690240 0.079729 -0.137478
0.607485 -0.332866 0.065277
0.312046 -0.519948 0.162489
0.795657 0.236491 -0.242357
-0.653801 -0.150212 0.316600
-0.015793 0.590785 -0.289924
-0.280711 -0.297289 -0.212049
-0.666744 -0.459595 -0.203890
0.208210 0.369671 0.077836
0.502462 -0.048710 0.327955
-0.407724 0.271910 -0.267302
0.200337 0.325693 -0.261368
-0.299627 -0.316497 -0.210602
0.489179 -0.246443 0.166475
0.662598 0.187044 0.190839
0.713830 0.327192 0.256073
-0.079868 -0.429193 -0.196162
0.043407 -0.450095 0.151156
0.452119 0.211135 0.170889
0.160114 0.320484 0.081548
-0.359774 0.857641 0.022209
-0.506371 0.516211 -0.279617
-0.141533 0.705907 0.040255
-0.514102 0.086666 -0.251977
-0.787293 -0.131076 0.079818
0.473251 0.253948 0.101164
0.061651 -0.738237 -0.164857
-0.346296 0.806420 -0.315936
0.456266 -0.357174 0.149936
-0.610623 0.296243 0.000810
0.036234 0.206810 0.178206
0.566305 -0.294103 0.146047
0.853470 0.385287 0.087991
-0.001951 0.530579 -0.284073
0.461959 0.426499 -0.266042
0.703911 -0.114453 -0.085451
0.165963 0.165640 0.096062
0.715016 -0.071498 0.026478
0.653171 0.157330 0.144847
-0.463938 -0.166715 0.321551
-0.632606 0.173574 -0.262197
0.302779 -0.259870 0.138120
-0.111448 0.231249 0.290859
-0.031979 -0.435752 0.206722
-0.217308 0.680744 0.041234
0.310109 -0.859036 -0.149146
-0.612367 0.261656 -0.218985
-0.049617 -0.568861 -0.182620
0.311982 0.409056 0.076038
-0.074721 -0.307325 0.341638
0.035028 0.211659 0.217685
-0.504452 0.210000 0.119557
0.555303 -0.414491 -0.186103
-0.140157 -0.315920 -0.207787
0.133349 0.005147 -0.232744
-0.129182 0.071316 0.175092
0.344090 0.234421 0.092867
0.381824 -0.462096 0.158361
-0.048743 0.605460 -0.291883
0.641285 0.370672 0.085534
-0.318046 -0.183254 -0.223333
0.780117 0.074219 -0.087933
0.305417 0.452669 0.071861
-0.379820 0.853691 -0.108217
-0.338637 0.435288 -0.281262
-0.164959 0.759533 0.034844
-0.205200 0.163881 0.089549
-0.596685 0.294681 -0.261623
0.012016 0.262364 0.141397
-0.214078 0.827153 -0.054377
-0.429470 0.710203 -0.255971
0.034736 -0.211733 -0.214336
0.597282 0.087541 0.316982
0.101460 -0.425568 -0.193237
0.796829 0.110133 -0.128156
0.377260 -0.861555 -0.147704
0.402152 0.097963 0.249056
0.449959 -0.735515 -0.021429
0.440969 -0.759443 -0.156060
-0.573143 0.057721 -0.250346
-0.264471 -0.036702 -0.236006
0.040414 0.373921 0.074422
-0.575950 -0.199566 0.322593
0.150931 -0.201395 0.129947
0.476052 0.389880 -0.262380
0.028854 -0.538518 -0.184032
0.596895 0.370747 0.290621
-0.005780 -0.156738 -0.220182
0.014069 -0.490279 -0.188787
-0.016527 -0.696352 0.172993
0.589349 0.003302 -0.224369
-0.189518 -0.229904 -0.216679
0.529408 -0.540509 -0.036333
0.035930 -0.090510 -0.225595
0.170355 0.376406 -0.266626
0.091643 0.700600 0.044944
-0.025148 0.603697 0.051860
-0.125265 0.590307 0.191507
0.640658 -0.272909 -0.096860
-0.291277 0.562853 0.050874
0.310538 -0.242089 -0.206549
0.118600 -0.001887 0.118940
-0.187397 -0.481590 0.348762
-0.851516 -0.291438 0.072039
0.415546 -0.586895 -0.172574
0.693451 -0.138486 -0.071567
-0.649277 0.057332 0.091475
0.419617 -0.813433 -0.040749
0.471893 -0.679467 -0.009486
-0.508593 -0.267991 -0.218875
0.711270 -0.095088 -0.077373
0.617641 -0.160025 -0.208661
0.545464 -0.474118 0.156637
0.421611 -0.791158 0.085118
0.687216 0.456062 -0.094301
0.574746 -0.441891 -0.136814
0.559299 -0.442689 0.135681
0.584151 -0.418550 -0.136703
0.207459 0.663702 0.044890
-0.043395 -0.448064 0.322965
-0.302550 0.578529 0.254774
-0.341867 0.151369 0.089313
0.391785 -0.388351 0.151677
-0.647276 0.209959 0.034421
0.671559 0.118933 0.109505
0.606582 -0.364829 -0.150616
0.804854 0.194810 0.104842
0.236336 -0.836838 -0.051931
-0.409214 0.788262 -0.053908
-0.091844 -0.712743 -0.166029
-0.753163 -0.044863 0.091138
-0.012009 -0.693264 -0.170367
-0.326085 0.342442 0.070758
-0.567800 0.398539 -0.027642
-0.728514 0.016571 0.093289
0.275469 0.044459 -0.233845
0.521370 -0.032264 -0.222282
0.542654 -0.085131 -0.216979
-0.742471 -0.251160 -0.224649
0.550652 -0.460052 -0.181947
-0.092666 -0.085044 -0.228417
-0.247252 -0.490874 0.149721
-0.478744 -0.173835 -0.227100
0.559829 0.071772 0.317776
0.406780 -0.500135 0.162349
-0.104104 0.234087 0.290727
0.550990 -0.470418 0.083969
0.432803 0.551308 0.064974
-0.398087 -0.272530 0.332582
0.560974 -0.270328 -0.199416
-0.284445 -0.397069 -0.202831
-0.448513 0.045760 -0.246991
0.621895 -0.303050 0.022229
-0.661070 -0.299822 0.215069
0.440356 -0.578611 0.170256
-0.654446 0.016213 -0.247946
0.521194 0.233704 0.302012
0.796357 0.415631 -0.046560
0.473464 -0.294802 -0.198713
-0.619925 0.014470 -0.247163
-0.026185 0.350313 0.089790
0.005280 0.228302 0.293233
0.747414 0.377662 0.086793
0.541320 0.022464 0.322031
0.190292 0.224445 -0.252127
-0.351970 -0.211254 0.128640
-0.033795 0.691960 -0.299663
0.083466 -0.421509 0.149216
0.493146 0.216345 0.303123
0.640738 -0.122139 -0.211771
0.105654 0.086507 -0.240813
-0.602168 0.285921 -0.226471
-0.016765 0.725650 -0.299510
-0.010484 -0.190389 -0.217136
-0.320457 -0.024562 -0.238143
-0.317668 0.038080 -0.243922
0.333458 0.131123 0.102288
-0.126278 0.737534 0.037587
0.694518 0.272813 0.238767
0.239918 0.021209 0.110833
-0.385930 -0.030826 0.221909
-0.578535 -0.179735 -0.228346
0.762850 0.049118 0.040807
0.539714 -0.112946 0.225702
0.781327 0.346652 0.090289
-0.260342 -0.481571 0.148620
0.286302 0.518371 0.065404
0.362597 -0.088641 0.329155
0.091271 0.082471 0.299650
0.369482 0.591337 0.060110
0.271581 0.321908 0.083421
0.540833 -0.095636 0.331270
-0.715001 -0.425723 -0.207911
-0.309093 0.772085 0.031083
0.566456 -0.450967 -0.053394
-0.269593 0.439627 0.268623
0.327394 -0.275833 -0.203106
-0.136458 0.679185 0.042833
-0.674882 -0.195043 0.247933
0.016586 0.251939 0.149530
0.335395 0.572016 0.061295
-0.444448 -0.493127 -0.196771
-0.639128 0.204125 -0.154750
0.447167 -0.738020 0.010673
0.672096 0.450704 -0.228762
-0.499535 0.196500 0.287111
-0.514936 -0.133484 0.317541
-0.041772 0.454989 -0.277755
-0.360663 0.032148 0.224126
-0.108264 0.742819 0.037419
0.007767 -0.521454 -0.186000
-0.389414 0.280806 -0.267800
-0.298493 0.308183 -0.268712
-0.702114 0.067499 -0.012392
0.109822 -0.187560 -0.215234
-0.386472 -0.582234 -0.045641
-0.060599 0.709496 0.041377
0.236668 -0.221032 -0.209838
-0.277708 -0.361706 0.343046
-0.060048 -0.279884 -0.209699
-0.581821 -0.480387 -0.200428
0.476453 -0.278618 0.162034
-0.435910 -0.165721 -0.227085
0.767031 0.218220 -0.241172
-0.145738 -0.104736 -0.227539
-0.513664 -0.507156 0.146444
0.196550 0.657087 -0.084199
-0.578577 0.042580 0.284347
0.553756 0.432782 0.078180
0.299700 -0.182748 -0.212266
0.072708 0.332606 0.078848
-0.153496 -0.276701 0.131478
0.637399 0.135490 0.270359
-0.364782 0.113400 -0.251779
-0.371073 0.074091 0.300813
-0.487977 0.406417 0.061892
-0.496099 -0.521049 0.146441
0.688776 -0.145998 -0.041912
-0.327319 0.266540 0.077799
0.699130 -0.091678 -0.213555
0.000970 0.290227 0.174724
-0.068169 -0.394208 -0.199207
0.454814 0.357378 -0.259738
0.513212 -0.464758 0.160972
0.232514 -0.298078 -0.202743
-0.027180 -0.064047 0.115470
0.284155 -0.053648 0.118595
0.536706 0.335103 -0.256192
-0.327553 -0.505946 0.149679
-0.876176 -0.359628 0.021004
-0.037186 -0.558955 -0.183319
-0.695054 -0.254613 0.178643
-0.315113 0.508775 0.109989
0.081030 0.203018 0.091056
-0.060218 -0.113331 0.117953
0.370816 -0.547998 0.166156
-0.007163 -0.433427 0.148695
-0.055506 -0.500047 0.163578
-0.449726 -0.443024 0.141626
0.731653 0.209211 0.102185
0.406374 0.411049 -0.265604
-0.399828 0.368815 -0.276177
0.571165 -0.452112 -0.146528
0.593472 -0.364357 0.089001
0.407168 0.152414 -0.241522
0.896510 0.381786 0.035226
-0.479660 0.626166 0.037831
-0.358080 0.173792 0.273746
-0.217259 -0.152274 -0.224402
0.130042 -0.023690 -0.230120
-0.023211 0.692573 0.043625
0.652185 0.391257 -0.259340
0.466354 0.189771 -0.243934
0.419905 0.144083 0.264213
-0.064963 -0.518646 0.198845
-0.351565 -0.599119 -0.076502
-0.367058 0.583917 0.047550
0.356415 -0.074726 0.327749
0.064922 0.560310 -0.285636
-0.086850 -0.185701 -0.218946
0.475114 -0.553429 0.168538
-0.348255 0.380554 -0.276342
-0.139331 -0.609724 -0.180432
-0.134873 0.615284 0.235214
0.261502 0.281797 -0.256182
0.797215 0.110352 -0.133515
-0.046381 -0.405333 0.351268
-0.037660 0.595774 0.052373
-0.131986 -0.038723 -0.233435
-0.037448 -0.664625 -0.173490
-0.292747 0.405304 -0.277647
-0.521926 0.394271 -0.280743
0.801167 0.117140 -0.155406
-0.265868 0.039558 0.100027
-0.183009 -0.612670 0.162211
-0.156256 -0.231411 -0.215941
-0.495606 0.067752 -0.249885
-0.565615 0.076873 0.254466
-0.696554 -0.253172 0.216132
-0.177501 0.796549 -0.237339
0.154009 0.449476 -0.273720
-0.874743 -0.371690 0.086899
0.817263 0.373521 -0.254720
0.570699 -0.039280 0.202554
0.275486 -0.615337 -0.172447
-0.494949 0.587999 0.036044
0.061150 0.148426 0.191659
0.228413 0.260882 0.088323
-0.153401 -0.056320 -0.232183
0.192337 -0.198712 -0.212712
0.313179 0.087927 -0.237212
