-0.076002 0.380738 0.039961
0.324305 0.060117 0.042027
-0.401147 -0.169292 -0.134632
-0.792445 -0.274106 0.149219
0.247168 -0.522895 0.399813
-0.169914 0.281811 -0.276577
0.658278 -0.119753 0.024039
-0.026824 0.258080 0.058947
-0.011009 -0.306855 0.183262
-0.466389 0.028115 -0.167621
-0.473377 -0.220765 -0.110412
0.799939 -0.006308 -0.313407
0.046014 -0.052097 0.195338
0.673788 0.346166 -0.083485
0.178781 -0.181497 -0.233381
-0.602489 -0.456290 -0.026229
-0.289152 -0.658015 -0.023473
0.486574 0.201683 -0.373446
-0.482818 -0.484718 0.118596
0.527127 -0.076113 -0.318053
0.211544 0.308275 0.039611
-0.086706 0.721157 -0.389971
-0.026095 -0.412395 0.422781
-0.183133 -0.415131 -0.117485
0.218203 -0.153599 -0.246556
-0.357633 0.478265 -0.287917
-0.331862 0.495228 0.058985
-0.276922 -0.134137 0.190947
-0.379312 0.654135 0.031543
-0.235612 -0.632750 -0.059347
-0.276201 0.148463 -0.227979
0.309923 0.136227 -0.327805
-0.594599 -0.015732 -0.135319
0.376281 -0.404685 -0.217740
-0.591816 0.360073 -0.217645
0.010508 0.694408 -0.400968
0.171176 -0.199359 0.127196
-0.511384 -0.456602 0.147104
-0.547736 -0.216210 0.256805
-0.013577 -0.122032 0.142135
0.341112 -0.060712 -0.288962
0.015505 0.801468 -0.127565
0.256463 -0.646207 0.212789
-0.504771 0.290368 -0.219898
0.441729 -0.051403 0.166649
0.200782 0.687910 -0.109011
-0.447380 -0.508923 0.114796
0.263927 -0.192435 0.109406
0.421528 0.523565 -0.172814
0.500300 0.040689 -0.339632
-0.239545 0.238394 -0.254624
0.608383 0.086000 -0.368741
0.659742 0.312305 -0.341944
0.438025 -0.111902 -0.294408
0.687884 0.305061 -0.309541
0.307621 -0.162946 0.308262
-0.072499 0.727438 -0.014525
0.110192 0.373232 0.037853
-0.044691 0.155781 0.277149
0.387958 0.450824 0.048154
-0.016314 0.301018 -0.307780
0.007159 0.074994 0.307322
0.188330 0.320094 0.030161
0.394736 0.414706 -0.045693
0.738503 0.315233 -0.182640
0.413698 0.527395 -0.176463
0.207975 -0.246013 -0.223978
-0.527526 -0.416726 -0.056853
0.156608 -0.723425 -0.107593
0.781134 0.305682 -0.129344
-0.460027 -0.406990 0.284372
0.191633 0.674991 -0.073071
0.761553 0.242526 -0.353568
0.748357 0.124385 -0.046645
0.004794 0.097269 -0.265640
-0.051845 0.510768 0.134662
-0.182398 0.849451 -0.364192
0.448042 0.506100 -0.173749
0.493142 -0.434482 -0.231489
-0.184275 0.835034 -0.043284
0.102019 0.123436 -0.288542
0.361593 -0.690696 0.074525
0.448079 0.038832 0.025153
0.467438 -0.077127 0.139747
0.744015 0.003681 -0.018732
0.436990 -0.107837 0.273224
0.548506 -0.087362 -0.319264
0.291406 -0.763940 0.233158
-0.187024 0.381530 -0.296015
-0.699108 -0.330841 0.159961
0.424554 0.451546 0.120288
-0.775033 -0.234476 0.299723
-0.270398 0.814865 -0.378903
0.038694 -0.622486 -0.109663
0.089544 -0.769640 0.269768
0.023920 -0.675701 0.260122
0.727394 0.150983 -0.404188
0.420420 0.531037 -0.152836
-0.394814 0.238312 0.127797
-0.344653 -0.565418 0.144208
-0.143582 0.742023 -0.384711
-0.504685 0.352661 0.121303
-0.526480 0.008003 -0.152580
0.189390 -0.182874 0.120300
0.295727 -0.374432 0.357918
-0.665760 -0.223319 0.279061
-0.308283 -0.036619 -0.180729
0.068851 0.125518 0.144936
-0.035462 -0.236699 0.171760
0.537039 0.194364 -0.025404
-0.038528 -0.067952 0.215325
0.060862 0.033183 0.307329
0.077164 0.737741 -0.067153
-0.462864 0.067351 0.178164
0.481710 0.487129 -0.165455
0.000556 -0.770933 0.196717
-0.765725 -0.122771 0.273937
-0.385552 0.297055 -0.242267
-0.614441 -0.439759 -0.000200
0.863813 0.188133 -0.081192
0.646867 0.257724 -0.414106
0.055156 0.447069 0.150945
0.306269 -0.581422 0.189499
0.226777 -0.627982 -0.141343
0.492930 -0.301742 0.093916
-0.337160 -0.465337 0.275994
0.530613 -0.087411 0.230167
0.425290 0.254459 -0.019364
-0.169611 0.917972 -0.137098
-0.195446 -0.271896 -0.147551
-0.230124 0.386518 0.065635
0.433733 0.508925 -0.192764
-0.800812 -0.094466 -0.081517
-0.544582 0.394674 -0.236394
0.510974 0.129840 -0.361555
0.414957 -0.366781 0.335330
-0.076293 0.100890 -0.252264
-0.358600 -0.613247 -0.042210
0.292672 0.428459 -0.390525
-0.035375 0.761488 -0.343119
0.063002 -0.593501 0.340583
0.841576 0.194353 -0.342971
-0.180104 -0.025055 0.362601
-0.668564 -0.383209 0.063512
-0.154244 0.920611 -0.099899
0.573006 0.139133 -0.019274
-0.699048 0.121867 0.207236
0.521033 -0.019349 -0.329755
-0.527934 0.059119 0.358680
0.037923 0.100159 0.296277
-0.149274 -0.656488 0.248585
-0.439240 0.141589 0.157330
0.402626 -0.563812 0.168674
0.783471 0.232624 -0.077139
-0.049655 -0.245062 -0.179103
-0.251288 -0.389926 0.335985
0.677529 -0.197883 -0.194138
-0.101704 0.781348 -0.400887
0.349512 -0.574276 0.180323
-0.260111 0.178531 -0.237558
0.547584 -0.101362 0.039275
-0.131130 -0.257463 -0.162054
0.881493 0.222809 -0.182469
0.421076 0.097536 0.016673
0.242169 -0.813429 -0.102321
0.218049 0.475220 -0.387983
-0.462909 0.376957 -0.246702
0.341307 0.372135 -0.386366
0.424971 0.198375 -0.006693
0.275167 0.473719 0.170723
0.251076 -0.383762 0.367831
0.035427 -0.832161 -0.061924
0.242686 -0.667169 0.219916
0.609023 -0.159970 -0.313522
0.527346 0.406987 -0.315173
-0.190712 -0.620321 0.276285
-0.591119 0.261895 -0.198381
0.038957 -0.426340 -0.153832
-0.372828 -0.253721 -0.120596
-0.081486 0.746741 0.025370
-0.297317 0.630181 -0.332646
-0.076309 0.171071 -0.268048
-0.165711 -0.250601 0.197683
0.455396 -0.041064 -0.313383
-0.807562 -0.178784 0.293860
0.267326 0.550695 -0.387522
-0.551771 0.384819 -0.232919
-0.031896 0.160752 0.288063
-0.498950 0.276136 0.137513
-0.446662 -0.236816 0.243752
-0.576753 0.235969 -0.195063
0.391713 0.459965 0.082372
-0.620299 0.254007 -0.191499
0.589079 -0.213074 0.057143
-0.174555 0.121788 0.328598
0.024635 0.071390 -0.263291
0.618435 0.407300 -0.140023
0.007844 -0.700745 -0.086659
0.175571 0.331766 0.040275
0.364931 0.482409 0.097518
-0.037443 -0.761360 0.152348
0.135254 -0.832284 0.272918
0.486452 -0.251370 -0.271510
-0.302154 -0.011529 -0.187446
0.103997 0.061940 0.250487
0.078811 -0.348347 -0.178352
0.588211 0.198035 -0.035185
0.378348 0.210752 -0.001317
0.769667 0.170373 -0.415948
-0.582393 -0.389954 -0.053273
-0.205799 -0.556487 -0.081720
-0.365153 -0.136660 -0.148272
0.431184 -0.130320 0.279298
-0.263535 0.673204 0.006991
-0.794089 -0.301687 -0.036079
0.352071 -0.481236 -0.196282
0.592966 0.382637 -0.077544
0.153400 -0.528913 -0.150787
0.177627 -0.663755 0.352062
-0.122895 -0.678001 0.235420
-0.143734 -0.738452 0.016789
-0.504661 -0.158727 0.307321
0.167344 -0.214708 0.131319
-0.175768 -0.135158 0.173474
-0.086327 0.831023 -0.234937
0.069541 0.110474 0.134922
0.523804 0.380936 -0.398990
0.705785 0.077206 -0.028581
0.031824 0.768425 -0.194072
0.020658 0.423661 -0.341839
0.168948 0.663984 -0.240659
-0.132669 0.657008 -0.367497
0.057200 -0.235861 -0.199874
0.828118 0.190137 -0.381181
0.254981 -0.112756 0.093048
-0.017306 -0.322155 0.187806
-0.719081 -0.371094 0.002717
0.000282 0.464744 -0.347515
-0.522455 0.369802 0.120557
0.332250 -0.494137 0.263346
0.099434 0.679382 -0.057923
0.063273 0.679401 -0.397191
-0.223654 0.735628 -0.014031
0.002926 0.453597 0.070349
0.135531 -0.248008 0.144378
0.594224 0.179320 -0.032028
0.479711 -0.099604 0.096749
0.028893 -0.058023 0.184671
0.225434 -0.283390 0.268304
-0.279162 -0.661377 -0.014308
0.093567 0.021218 0.091159
-0.135582 -0.323754 0.422002
-0.033294 0.147335 0.084991
0.101017 -0.013635 0.170612
-0.041784 0.787547 -0.278312
0.630540 -0.147129 -0.320176
0.031226 -0.341946 0.183764
-0.124906 -0.465913 0.358490
0.258724 -0.166074 0.104386
0.475476 0.486754 -0.178489
0.087930 -0.853663 0.119177
-0.085437 -0.049254 -0.216888
-0.068941 -0.067965 0.253360
-0.260481 -0.109753 0.266839
0.398971 0.363341 0.066553
0.145500 -0.219757 -0.218950
0.551521 -0.100315 -0.316878
0.124123 -0.276463 0.152776
-0.160207 0.060254 -0.228436
0.479509 -0.084283 -0.307881
0.365333 0.491413 -0.375382
-0.264975 -0.630988 0.102699
-0.010988 -0.496923 -0.129214
0.052279 0.732509 -0.261161
-0.054059 -0.735811 0.196120
0.458017 0.517237 -0.121734
0.091728 0.070389 0.201601
0.068343 -0.111680 -0.229759
0.134681 0.602969 0.013654
-0.790143 -0.326472 -0.001239
0.144182 -0.216586 -0.219433
-0.796680 -0.258059 0.188575
-0.104356 0.677716 0.191255
-0.492232 0.510744 -0.190772
-0.575214 -0.172749 -0.103390
0.539222 -0.137536 0.098400
-0.480361 0.199491 0.151501
0.594742 -0.133623 0.038279
-0.124014 -0.198975 0.178772
0.486322 0.400520 -0.412764
0.130065 -0.202283 -0.220180
-0.704579 -0.023203 -0.114390
-0.351354 0.030050 -0.188189
-0.147684 -0.273701 -0.155504
0.199508 -0.089074 0.097429
0.096423 -0.910115 -0.031523
0.763188 0.318794 -0.124891
-0.551912 -0.083408 0.377535
-0.034371 -0.528473 -0.118024
-0.313804 0.446794 0.066720
0.085726 -0.002720 0.110020
-0.038013 -0.442266 0.423531
-0.534526 -0.471703 -0.043261
0.004321 0.348010 0.033266
0.241859 -0.484877 -0.176175
-0.646490 0.262309 0.127321
0.297348 -0.331664 0.348013
0.445809 0.333578 -0.395982
0.436639 0.482203 -0.266230
-0.076619 0.198696 -0.274208
-0.107286 -0.746075 -0.056313
0.139658 0.389309 0.141757
0.549979 -0.192273 0.059307
-0.158649 -0.094705 0.220817
0.458313 -0.049456 0.204127
0.065721 0.644005 0.003110
-0.083115 0.026104 0.334119
0.155519 0.598608 -0.404796
-0.368486 -0.278006 -0.115893
0.220181 0.389569 -0.369089
0.415998 -0.066196 0.073685
0.343030 0.550172 -0.244270
0.103889 0.058742 0.247191
0.440414 0.264814 -0.379569
0.403093 -0.267337 -0.253329
0.501280 -0.078783 0.042300
0.593026 0.318618 -0.063153
0.865512 0.231693 -0.186764
-0.085342 0.194285 0.083539
-0.423706 -0.195147 0.230361
0.056080 -0.287709 -0.188014
0.573911 -0.125256 0.250906
0.581556 0.443269 -0.104187
0.031599 -0.157508 -0.213019
-0.126936 -0.230403 0.300640
-0.181132 0.180688 -0.251866
0.161401 -0.009023 0.086090
-0.511794 0.169785 -0.191543
0.170429 -0.111894 -0.247577
0.689871 0.342409 -0.195287
-0.099793 -0.266162 -0.165582
0.286898 -0.612461 0.199871
0.152524 -0.665523 0.298818
0.174069 0.697830 -0.130771
0.192044 -0.745590 0.246420
0.149017 0.419015 0.205107
-0.766962 -0.081306 0.264826
0.523619 0.409398 -0.315172
-0.566369 -0.404199 0.196909
0.625047 0.072720 -0.368670
-0.302057 0.797081 -0.106015
0.356638 -0.376789 -0.220577
0.388281 -0.132762 -0.281009
-0.355044 -0.089476 0.407710
0.270885 0.446274 -0.390719
0.277885 -0.691840 -0.135923
0.178944 -0.879032 0.218237
0.100557 0.538499 -0.381656
-0.252697 0.565865 0.029241
-0.041760 0.496372 -0.347272
-0.803864 -0.221483 0.283000
-0.735477 -0.345396 -0.036505
-0.292832 0.067431 0.361526
-0.552030 0.279437 0.146060
-0.545220 -0.250707 -0.091103
0.858562 0.263590 -0.105726
-0.122792 -0.582956 0.264935
0.341951 0.207699 -0.349489
-0.326554 0.021117 -0.190519
-0.303135 -0.356315 -0.109714
0.075416 0.539953 0.190783
0.243842 0.392544 0.194466
-0.151815 0.349096 0.060348
0.389537 -0.224974 0.307879
0.472267 0.511888 -0.110297
-0.143948 0.111802 0.325487
0.327747 -0.019063 -0.295992
-0.106835 -0.555628 0.255995
0.062133 0.647181 -0.399379
0.079118 -0.555577 -0.131789
-0.376629 0.070470 -0.192858
-0.339858 -0.137397 -0.152533
-0.094761 0.840449 -0.223192
0.393335 -0.276025 0.318698
-0.247038 0.460947 -0.303376
-0.283303 -0.072317 -0.177071
0.483331 -0.177604 -0.287557
0.448450 0.531300 -0.098444
-0.740559 -0.334465 0.069960
-0.334352 0.343115 0.093639
0.141952 0.670065 -0.274310
0.327250 0.268380 0.142937
0.094503 -0.774666 0.270031
0.181997 0.107789 0.056209
0.266867 -0.343312 -0.212397
0.176892 0.333370 -0.348871
-0.090925 0.534468 0.130004
-0.041210 -0.304446 0.245639
0.548096 -0.402016 0.106818
0.363172 0.274561 -0.013015
-0.498843 -0.301443 -0.087806
0.267136 0.197742 -0.334155
0.157891 0.530059 0.178574
-0.369082 0.630357 0.035102
-0.143546 0.896690 -0.150182
0.226877 -0.442980 -0.182978
0.665106 0.125085 -0.387461
0.324372 0.325290 -0.372864
0.008406 -0.713064 0.271242
0.138567 0.379932 0.111938
-0.245451 -0.302508 -0.131913
-0.229900 -0.674232 0.041898
0.138950 -0.612162 0.430661
0.127685 0.136266 -0.295920
-0.076043 -0.156498 0.160821
0.087471 -0.007082 0.114204
0.325708 -0.290448 0.333778
0.245168 0.455986 0.179962
-0.026995 -0.077171 0.150907
-0.502574 -0.166597 0.262050
-0.774688 -0.251449 0.250186
0.400485 0.366122 0.172995
0.602406 -0.072267 -0.332093
-0.499000 0.237260 0.146267
-0.396330 0.060964 0.381094
-0.284992 0.678481 0.009559
-0.069110 0.794989 -0.308569
0.627426 0.010202 -0.355023
-0.396182 -0.178893 -0.133341
0.123289 0.421997 -0.359427
0.005412 0.756119 -0.280981
0.344478 0.582071 -0.147167
0.310055 -0.660433 0.206610
0.441374 0.386203 -0.051816
-0.588237 -0.098066 -0.117911
-0.321041 -0.404837 0.259563
-0.107754 0.390269 0.043374
-0.298165 -0.485342 -0.081559
-0.213077 -0.101628 0.251488
-0.565773 0.007541 -0.145599
-0.040805 -0.296820 0.399356
-0.381792 0.016670 -0.179852
0.170804 0.171828 0.043762
-0.244444 0.541002 -0.321839
0.317369 -0.615147 -0.160085
0.638836 -0.225642 0.051262
-0.321555 0.069436 0.366101
0.600234 -0.288116 0.072071
0.434354 -0.432953 -0.221544
-0.338256 0.580684 0.040881
-0.016588 -0.656522 -0.092331
0.201396 0.305212 0.011143
-0.097447 0.144534 0.309986
-0.151450 0.633136 -0.358840
-0.124607 0.114122 0.321581
-0.526606 0.327265 -0.224377
-0.080585 -0.225761 -0.178032
0.572851 0.305601 -0.056694
0.534043 0.444279 -0.192080
-0.403148 -0.134249 0.312813
0.437545 -0.087092 0.268460
0.716461 -0.006138 -0.011701
-0.412020 -0.477954 0.274014
-0.055766 -0.651736 -0.086551
0.497812 -0.480232 0.006924
-0.251972 0.021562 -0.203672
-0.045724 -0.556451 -0.109743
-0.109508 0.654298 -0.370941
-0.022504 0.483302 -0.347701
-0.539983 -0.013845 -0.145302
0.422836 -0.025444 -0.311199
-0.247927 0.389489 -0.287146
0.234883 0.371647 -0.367631
0.210926 -0.832602 0.262688
-0.509484 0.452672 0.099645
-0.446521 -0.140410 0.333758
-0.448689 0.557507 -0.289806
-0.557542 0.337867 0.133881
0.717031 -0.107759 -0.344169
0.096381 0.038715 0.195199
0.101624 0.524174 -0.378620
-0.729509 -0.311223 0.159830
-0.275026 0.050748 -0.206203
0.175444 0.362113 0.129779
-0.467754 -0.243801 -0.106214
-0.766472 -0.104330 0.269920
0.247781 0.395439 0.193125
-0.656638 0.172369 0.188453
-0.071531 -0.056296 0.319851
0.372712 -0.222386 0.310242
-0.115155 -0.736786 -0.057025
-0.532366 0.056388 -0.162434
0.234421 -0.881012 -0.009883
-0.080727 0.829970 -0.060267
0.295803 0.615176 -0.077847
-0.424085 0.045022 -0.178828
-0.180003 -0.571266 0.272318
-0.333029 0.592437 -0.317906
0.147555 -0.479687 -0.160838
0.208399 -0.853924 -0.087301
-0.366263 0.703115 -0.199355
-0.140171 -0.633749 -0.075826
-0.189440 0.326384 -0.283186
-0.060499 0.723059 -0.004523
0.837992 0.260375 -0.154579
-0.414234 -0.309169 0.254352
-0.802144 -0.162150 -0.066059
-0.717592 -0.329019 0.129995
0.332944 -0.537422 -0.180296
0.151885 -0.666931 0.293434
0.171500 -0.880802 0.198765
0.014296 0.478966 0.167121
-0.380495 0.100153 0.156370
-0.020906 -0.424938 -0.143671
0.034326 -0.106168 0.130183
-0.158884 -0.037794 -0.206612
0.517975 0.287769 -0.043079
-0.035452 -0.068948 -0.221206
0.185767 -0.090347 0.100120
0.447021 -0.143425 -0.288891
0.434998 -0.448048 -0.218261
0.177257 -0.700073 0.243951
0.003937 -0.379636 -0.158209
0.131615 -0.865897 -0.071169
-0.156465 -0.732839 0.009039
-0.186661 0.895817 -0.235229
-0.030624 0.643359 0.186079
-0.481821 0.530188 -0.276259
-0.801458 -0.264358 0.160809
-0.040411 -0.076713 0.170198
0.265507 -0.447954 -0.188619
-0.313996 -0.548138 0.253950
0.800104 0.212608 -0.368308
-0.214966 -0.695165 0.008557
-0.115743 0.562034 -0.349095
-0.807186 -0.019092 0.257871
-0.919670 -0.158901 0.242237
-0.400962 0.195794 0.138437
-0.620376 -0.211125 0.268375
0.141728 -0.516273 -0.151588
0.905047 0.210105 -0.093351
-0.384499 -0.502495 0.254079
-0.570066 0.236512 0.158873
0.393130 0.004538 -0.312744
0.248632 -0.725476 0.231991
0.088397 -0.228479 -0.206994
0.434841 0.405671 -0.055051
0.394563 0.447238 0.050184
0.217473 0.244061 0.019345
0.142692 -0.061416 -0.254078
-0.395462 -0.471862 -0.067563
0.061706 -0.754305 -0.084037
0.588222 0.351845 -0.361807
-0.839250 -0.256426 0.111981
-0.452177 0.093053 -0.184716
0.114728 0.342049 -0.339944
-0.143657 -0.705276 0.115050
-0.272917 -0.587217 0.216951
-0.022869 -0.479387 0.224149
0.119684 -0.319758 0.163292
0.262349 -0.191274 0.109421
-0.011763 -0.290263 0.392799
-0.229643 -0.001717 -0.202344
0.664853 -0.072433 -0.342984
-0.058634 0.605898 0.199408
0.478876 0.498725 -0.083691
0.059820 -0.514411 -0.137672
-0.040355 -0.279036 -0.173088
-0.046433 -0.771252 0.105896
0.147158 0.341017 0.013287
0.053495 -0.090562 0.123318
-0.437471 -0.520731 0.098829
-0.154055 -0.102130 0.174820
-0.137885 0.110880 0.324634
-0.350807 0.271065 -0.242501
0.214897 0.660243 -0.073825
-0.368512 0.637032 -0.321727
0.282943 0.013419 -0.295458
-0.081077 -0.018029 0.343690
0.086593 0.623127 0.170116
-0.289088 0.102904 0.296754
-0.022771 -0.750206 0.213395
0.511705 -0.278915 0.085495
-0.172756 0.430945 -0.309628
0.086571 -0.208954 0.144161
0.228753 -0.643267 0.430114
-0.535076 0.359133 0.125165
0.450845 -0.069680 -0.306149
-0.216306 0.921784 -0.215137
0.108045 0.030798 -0.268758
0.048358 0.237334 0.050456
0.308405 0.529195 -0.372533
-0.342119 -0.086091 -0.163679
0.772839 0.299999 -0.162015
0.078666 0.099154 0.166871
-0.628639 0.122723 -0.160507
0.260601 -0.427167 0.375928
-0.186968 0.554215 0.020358
-0.113176 0.557682 -0.348565
0.605217 -0.028581 -0.342412
0.183412 0.034109 0.072535
0.041915 -0.567596 0.375203
-0.176383 -0.470191 -0.106281
-0.137865 -0.089119 -0.198745
0.216595 0.028163 -0.287163
0.284042 -0.340528 -0.216029
-0.641230 -0.300962 -0.062995
-0.743958 -0.064550 0.257031
0.025880 -0.716299 0.268911
0.390603 0.420932 -0.035185
-0.071760 0.193043 0.081441
-0.199955 0.611097 0.148076
-0.382529 -0.197783 -0.131481
-0.050991 0.132352 0.158055
0.230302 0.304451 -0.351713
-0.328104 0.356878 -0.265778
0.616529 0.362339 -0.276631
-0.626131 0.304800 -0.201905
0.448875 0.524781 -0.116912
-0.483289 -0.112114 0.435247
-0.289778 0.803127 -0.017642
0.231565 -0.116483 0.097984
0.719014 0.185590 -0.410506
-0.179150 -0.457459 0.279737
-0.087458 -0.765743 -0.055359
-0.934673 -0.176810 0.123632
-0.177861 -0.628857 0.275622
0.752830 -0.087780 -0.082305
-0.004153 -0.599751 0.247950
0.006764 0.616954 0.185476
-0.553512 -0.437589 0.122755
0.552092 -0.037107 -0.331196
-0.232536 0.236986 -0.255534
0.532198 -0.108818 0.169894
0.180224 0.239131 -0.328255
0.754663 0.259702 -0.315954
0.519152 -0.020756 -0.329110
-0.396322 -0.579264 0.004434
-0.237603 0.133062 0.123959
-0.537207 -0.245037 0.261448
0.218081 -0.162703 -0.244487
0.145814 -0.908913 0.066501
0.752401 0.101972 -0.397539
0.007565 0.319541 -0.316126
0.321439 0.617234 -0.087245
0.227100 -0.435297 -0.184745
0.104398 0.095725 -0.282725
0.480373 -0.102453 0.051283
-0.138907 -0.159865 0.172580
0.380355 0.417193 0.165029
-0.022235 -0.484556 0.225201
0.135757 -0.422703 0.330973
0.346756 0.464353 0.160301
0.730723 0.305093 -0.227506
-0.017631 0.159847 0.265287
-0.566354 0.379800 -0.229238
0.068545 -0.031775 0.277263
-0.284878 0.098053 0.140108
0.171010 0.041119 -0.282099
-0.682326 -0.307798 0.260204
0.009031 0.774260 -0.063444
-0.144024 -0.648040 -0.071936
-0.117631 -0.593052 0.266303
-0.133192 0.863036 -0.229902
-0.396322 0.427199 0.085570
0.501169 -0.085626 0.179129
-0.834430 -0.045927 -0.086553
0.012325 0.208572 0.063232
-0.197721 0.377586 -0.293255
0.003621 -0.345615 0.209637
-0.392214 -0.003600 -0.173468
-0.395932 0.213178 -0.221582
-0.753167 0.042860 -0.120748
0.059564 -0.891848 -0.052722
0.431269 0.278177 -0.380975
-0.499828 0.181380 0.158982
-0.555089 0.398657 0.119777
-0.626717 0.065788 0.207192
-0.331924 -0.037488 -0.176396
-0.149262 0.920083 -0.091934
0.186075 -0.172316 0.118505
0.021179 -0.274567 -0.184863
0.771856 0.220235 -0.399784
0.134580 0.620025 0.063900
0.154191 -0.081182 0.103584
0.041612 -0.409067 -0.158183
-0.784926 -0.303015 0.078107
-0.402014 0.257703 0.124695
0.403560 0.469766 0.134016
-0.655516 -0.141284 0.258814
-0.195553 -0.441780 0.294730
-0.220153 -0.090404 0.321190
0.083327 0.553673 -0.382054
0.298385 -0.557947 0.185598
-0.261994 0.452407 0.056390
-0.242390 0.491439 0.044179
0.737673 0.342426 -0.093824
-0.030227 -0.630667 0.259468
0.120580 -0.102556 0.114275
0.818837 0.244096 -0.239359
-0.072080 -0.707763 0.244598
0.441690 -0.530270 -0.200937
-0.147245 0.103687 0.327890
0.247831 0.279419 0.023679
0.457926 0.084523 0.013151
-0.665175 -0.406537 0.001008
0.104209 0.624270 0.018365
-0.194550 -0.151672 0.180476
0.236858 -0.886147 0.201756
-0.729894 0.138944 0.037246
-0.789312 -0.162745 -0.068171
-0.242421 0.619395 0.091393
0.436259 -0.445504 -0.219054
-0.546020 0.365381 0.125675
0.142690 -0.905451 -0.064210
0.040711 -0.868566 -0.015212
-0.159185 -0.447193 0.348284
-0.146814 -0.551368 0.262033
0.060137 -0.567801 0.411105
-0.102637 0.850692 -0.207964
-0.177613 -0.540955 -0.090147
-0.126568 0.842062 -0.279261
-0.452889 -0.534617 0.028275
-0.495210 0.001120 0.411861
0.100882 0.129121 -0.289622
-0.536415 -0.088083 0.439139
-0.450791 0.561843 0.064814
-0.157234 -0.606661 0.276296
-0.733764 -0.344013 -0.037116
0.616848 0.044759 -0.005717
0.030530 -0.593119 -0.114840
-0.724298 -0.359156 0.028044
-0.543896 -0.094770 0.404360
-0.305061 -0.115883 -0.163463
0.004057 -0.462920 -0.139496
-0.505428 -0.050595 0.425283
0.373373 0.549711 -0.076696
-0.420809 -0.130392 0.355847
0.123504 0.740393 -0.101613
-0.225658 0.419289 0.057481
-0.526541 0.294919 0.138117
-0.169275 -0.466688 0.271333
0.576203 0.325458 -0.416976
0.142219 -0.586285 0.432441
0.467855 0.099551 -0.347195
0.119204 0.229575 -0.315426
-0.177031 0.944694 -0.069220
0.287113 0.541022 -0.059645
0.708998 0.274369 -0.073496
-0.045491 -0.112026 -0.209758
0.138097 -0.039345 -0.258238
-0.214908 -0.690661 0.021989
0.362756 -0.219722 0.311385
0.115578 0.662201 -0.348013
-0.097222 -0.601460 0.264623
-0.119285 0.572057 0.186920
0.138994 -0.762173 0.259434
0.025477 0.799592 -0.114038
-0.249253 0.597309 0.021564
-0.558009 -0.478476 -0.006762
-0.291474 0.096899 -0.213706
-0.264227 -0.501257 -0.083918
-0.525132 -0.153990 0.358643
0.802763 0.076992 -0.045506
-0.470800 -0.380950 0.280399
0.525292 -0.233779 0.072964
-0.726862 0.034561 0.231743
0.142431 -0.793114 -0.089435
0.036077 0.598138 0.184578
0.042096 -0.035708 0.289081
-0.365569 -0.044108 0.399346
0.429556 0.387436 -0.405253
-0.171668 0.297268 -0.279747
-0.444148 -0.515225 -0.049288
0.127766 -0.469094 -0.159757
0.517724 0.040414 0.012608
0.062743 0.699435 -0.338958
0.038753 0.683604 -0.403481
0.210023 -0.913746 0.175019
0.166335 0.348817 0.073035
0.438723 0.403208 -0.410405
0.006929 0.226017 -0.294976
0.498231 0.083857 0.006247
0.466131 -0.087707 0.105960
-0.111731 -0.738700 0.077268
-0.457524 0.081451 0.174058
0.433194 0.292205 -0.029239
-0.250018 0.542228 -0.321139
-0.127984 0.869602 -0.200523
-0.611970 -0.450056 -0.025926
0.074821 -0.075859 -0.238950
-0.426497 -0.140856 0.306258
0.434727 -0.463355 0.140458
0.008247 0.726988 0.138589
-0.034288 -0.656397 -0.089262
-0.213626 0.571659 -0.334129
-0.204005 0.933017 -0.158392
-0.817564 -0.272179 -0.038609
0.158502 -0.649488 -0.124557
-0.186034 -0.504307 0.258311
0.679225 0.186322 -0.403707
-0.334865 0.068613 -0.199749
0.564263 -0.139973 -0.310186
-0.233067 0.147089 -0.235218
0.231328 -0.700650 -0.125793
0.141314 0.334939 -0.342998
-0.471735 0.069754 -0.176052
0.579677 -0.206399 0.057287
0.396225 0.361188 0.017904
0.376482 -0.033099 -0.301364
-0.193621 0.591424 0.102012
0.194203 0.604282 0.131385
-0.758728 -0.180200 0.285631
-0.120570 0.576850 0.198639
0.383389 0.285358 -0.374210
-0.236456 -0.617984 0.195703
-0.433876 0.595256 -0.084626
-0.500202 -0.368444 -0.072496
0.313379 0.176259 0.017812
0.398508 0.466988 -0.384159
-0.513136 -0.449003 0.166229
-0.127586 -0.500364 0.251481
-0.552726 0.414643 -0.097719
-0.066629 0.828002 -0.206195
-0.320678 0.466047 0.063592
-0.512547 -0.281264 0.265281
0.298786 -0.198295 0.317760
0.274632 -0.333038 0.352298
0.495865 -0.063302 -0.315463
0.667407 0.277205 -0.066855
0.243131 -0.615902 0.421442
0.460714 0.519207 -0.110748
-0.596538 0.023297 0.266271
0.031645 -0.267987 -0.188175
-0.122914 -0.454283 0.396693
-0.162854 0.378485 0.055669
-0.363621 0.356506 -0.259479
0.210655 -0.548893 0.412052
0.416344 0.543056 -0.125088
0.090063 0.125672 0.242388
0.099431 -0.603017 0.382118
0.482010 -0.507807 0.090363
0.399275 -0.550390 -0.188987
-0.018039 -0.802906 0.066595
0.276330 0.273406 0.060407
0.181172 -0.353768 0.337923
-0.480855 -0.304288 -0.090314
0.294773 -0.496508 0.385546
0.155527 0.300731 0.017438
0.573551 -0.216524 0.060637
0.408198 -0.147836 0.287261
-0.532096 -0.136726 -0.119040
-0.714926 -0.252603 0.294253
-0.084471 0.779974 -0.382353
-0.594742 0.045851 -0.149147
0.097368 0.096125 0.073643
-0.219764 -0.164700 -0.167409
-0.761840 0.055544 -0.122083
0.173297 -0.051818 -0.261593
0.366962 0.544989 -0.213825
0.020787 -0.106604 -0.222578
-0.740220 -0.006760 0.243377
-0.438071 0.227038 0.137903
-0.206827 0.156542 0.113291
-0.813373 -0.151974 0.288845
0.109674 0.658135 -0.371329
0.882770 0.161042 -0.362689
-0.207742 0.338194 0.072588
0.292338 -0.151166 -0.260078
-0.164572 0.100094 0.125517
-0.067104 -0.711079 -0.071218
-0.233255 0.586915 0.021103
-0.441440 0.312494 -0.235959
-0.483747 0.225094 -0.208894
0.074335 0.082382 0.132306
-0.103813 -0.280002 0.198188
0.380062 -0.157923 -0.273911
-0.078279 0.812676 -0.273799
0.238005 -0.725182 -0.121443
-0.198061 -0.401844 -0.117861
-0.514726 -0.482296 0.064728
-0.415082 0.162047 -0.206728
0.617344 0.277421 -0.413370
0.013640 0.527677 -0.364010
0.457588 -0.303581 0.275195
0.623489 0.256905 -0.409830
0.006564 0.184197 -0.285504
-0.191499 0.924090 -0.160868
-0.041264 0.337246 0.043665
0.086686 -0.447730 -0.157374
-0.006168 -0.580976 0.244079
-0.932205 -0.197097 0.109640
-0.595892 -0.003311 -0.137887
-0.372887 -0.037630 -0.169195
-0.312954 0.125299 0.138892
0.419844 0.111270 -0.341429
-0.786059 -0.327297 0.004130
0.633468 0.031114 -0.360785
0.173307 -0.677508 0.303128
-0.332944 0.018187 0.379623
0.000807 -0.049336 0.266942
0.125132 -0.651063 0.289190
-0.507787 -0.152698 -0.119701
-0.440058 -0.515089 -0.050034
0.247503 -0.039276 0.077827
0.588413 0.087223 -0.010293
0.679795 -0.086977 -0.342328
-0.199049 0.573550 -0.337105
0.368827 -0.024492 -0.301960
0.370940 -0.366524 0.342976
0.041917 0.017742 -0.254248
0.058805 0.653646 0.018394
-0.310036 0.147559 0.133374
-0.131002 -0.454336 0.381068
-0.358578 -0.607042 -0.005521
0.205000 0.690857 -0.092231
0.186456 0.078910 -0.293303
0.190203 -0.405740 0.383429
0.314272 0.098247 0.035205
0.203912 0.173186 -0.317566
0.082413 -0.039415 -0.248477
0.889207 0.123997 -0.175555
-0.351737 -0.090489 -0.161006
-0.071829 0.536844 0.173555
0.450839 -0.169941 -0.283595
0.127153 0.614801 0.164891
-0.355504 -0.612553 -0.015938
0.225155 -0.833975 -0.094721
-0.631388 0.192850 0.179427
-0.116463 -0.577104 -0.092717
0.589544 -0.295947 0.075704
-0.615680 -0.266994 -0.075107
0.160152 -0.814603 0.267526
0.393259 0.463341 0.152390
-0.251671 0.290365 -0.264193
0.082206 -0.857541 0.096760
0.012790 0.435205 0.034826
-0.772630 -0.344440 -0.020881
-0.239985 -0.695118 -0.039156
-0.247961 -0.452994 0.257606
0.230839 0.019953 -0.287809
0.016855 0.551334 0.198471
-0.020356 -0.236071 0.168975
-0.499366 -0.234655 -0.102739
0.447986 0.071211 -0.337343
0.101945 -0.045371 0.104672
0.379766 0.331716 -0.028776
-0.748566 -0.258218 -0.053825
0.128222 0.729226 -0.125615
-0.533124 -0.432828 -0.052251
0.526984 0.458529 -0.163439
-0.031908 0.462154 0.029028
0.647590 0.148193 -0.389593
0.423971 -0.342752 -0.240018
0.595894 -0.154362 0.042743
0.456857 -0.528652 -0.203955
0.369714 -0.246862 -0.252093
-0.519472 0.123571 0.175425
-0.309819 -0.512391 0.281794
0.382291 0.438605 -0.408491
0.163750 0.508204 0.182465
-0.841810 -0.273449 0.056743
0.442364 -0.043169 0.192215
-0.281905 0.414507 -0.286828
-0.339841 -0.524790 0.273560
-0.165060 0.218048 0.092145
0.083257 0.761113 -0.073477
-0.521256 0.040031 0.407666
0.352992 -0.006513 0.051995
0.247458 0.508119 0.167834
0.277839 0.067082 0.048592
-0.775674 -0.173078 0.286995
-0.467593 0.144126 0.161721
-0.395372 0.509450 0.066901
0.483722 0.426226 -0.341717
-0.292230 0.590618 -0.324637
0.096468 0.642993 -0.404446
0.335414 -0.551162 0.177591
-0.220913 0.572766 0.022126
0.362611 0.554504 -0.075891
0.527428 0.395697 -0.069012
0.486982 0.400062 -0.412856
-0.537994 -0.192230 -0.105522
-0.628988 -0.433513 -0.009552
-0.528662 -0.206423 -0.103962
-0.367873 0.137188 0.145830
-0.572735 -0.384887 0.241843
0.039010 0.465232 0.173775
0.476882 -0.001061 0.029086
-0.587680 -0.420717 0.107296
0.121412 -0.243470 0.145828
-0.178464 -0.701165 0.060631
-0.133605 0.809462 -0.046400
-0.677786 0.200857 -0.169482
-0.179932 -0.243386 -0.156680
0.106747 -0.781028 -0.085909
-0.224304 0.879091 -0.356690
0.059327 -0.643146 0.246602
-0.092893 0.815776 -0.054945
0.094280 -0.030129 0.253937
-0.234754 0.881548 -0.369415
-0.037376 -0.314789 0.222386
-0.663099 0.244177 -0.044525
-0.036954 -0.535844 0.239314
0.755439 0.300285 -0.194452
0.333996 0.118721 0.027148
0.176211 -0.267360 0.141612
-0.593538 0.173761 -0.178131
0.204831 -0.425019 -0.183160
0.611032 -0.283254 -0.286140
0.320038 0.115324 -0.324873
0.119671 -0.877785 0.108552
-0.365849 -0.585840 0.043274
0.772857 0.170986 -0.061416
0.317216 -0.140764 0.203190
0.248511 0.369581 -0.369551
-0.142469 0.389339 -0.305569
0.421608 0.516630 -0.193170
-0.042442 -0.675304 -0.083581
-0.488896 -0.240495 -0.103257
0.130133 0.631686 -0.407794
-0.481693 0.501135 -0.271349
0.057347 0.757099 -0.178748
0.074355 0.049154 0.103293
-0.574824 0.301869 0.145004
-0.112955 0.568569 -0.351052
-0.643007 -0.085864 0.244158
0.422702 0.421383 0.027545
-0.329694 -0.451378 -0.083681
-0.217189 0.083148 0.344751
-0.358151 -0.275676 0.237003
-0.430786 -0.482228 0.225480
-0.429253 0.365924 -0.250111
-0.397988 0.202982 0.136300
-0.160141 0.291091 0.074853
-0.263762 0.232860 0.106087
-0.618869 -0.431404 0.016038
-0.547818 0.339202 0.131879
-0.462927 -0.210692 0.240722
-0.096984 -0.502049 0.305029
0.162406 -0.637592 0.400321
-0.715375 -0.071652 -0.101602
0.093274 -0.781475 0.271778
0.441712 0.032344 0.027727
0.078933 0.134148 0.198750
0.711468 -0.126467 -0.338988
0.320455 -0.139648 0.294569
-0.567752 -0.411385 0.173011
-0.356760 0.445382 0.074556
-0.602386 0.219358 0.168388
-0.298994 0.073747 0.151125
0.553641 0.190159 -0.027363
-0.338730 0.138441 -0.214781
0.018639 -0.204783 -0.200116
-0.623276 0.304220 -0.028731
0.895078 0.190332 -0.087158
-0.581806 -0.098817 -0.118868
-0.399417 -0.073445 0.411869
-0.603115 0.198367 -0.181990
0.627659 0.318166 -0.069113
-0.107208 0.199257 0.086247
0.220413 0.058091 0.060665
-0.047192 -0.310012 0.403442
-0.188470 0.436877 0.047016
0.880479 0.131049 -0.071267
0.134404 -0.153497 0.123315
-0.645292 0.169680 0.187072
0.762622 0.311310 -0.148108
0.289198 0.554289 -0.335060
-0.737964 -0.144840 -0.081185
-0.841144 -0.242758 0.148778
0.267878 -0.816387 -0.106155
-0.774973 -0.159892 -0.071322
0.562335 0.385366 -0.312188
-0.678228 -0.128897 -0.095226
-0.110172 -0.460312 0.403234
-0.079045 0.738940 -0.040084
0.796896 0.023348 -0.387640
0.366060 0.491455 0.126428
0.155627 -0.149787 -0.236462
0.414642 0.529024 -0.169841
0.448652 0.016248 0.030133
-0.007920 0.362954 0.032047
-0.068736 0.748296 -0.399221
0.042996 0.044810 0.307840
0.107191 0.506365 -0.375588
-0.147558 -0.575402 0.267570
0.019579 -0.338815 0.260270
0.273354 0.561259 -0.061789
-0.472517 0.049069 -0.171262
0.457699 -0.219525 0.294724
-0.591228 0.331222 -0.213957
0.111474 -0.505442 0.419636
-0.675032 -0.002821 0.231082
0.800592 0.251910 -0.251147
-0.063920 0.165465 -0.268955
0.280797 0.130112 0.033896
0.795383 0.244688 -0.282470
-0.235064 0.841973 -0.391184
0.275739 0.299229 0.135644
0.091741 -0.278454 0.158891
-0.115315 -0.217948 0.359701
0.075241 0.560819 0.186119
-0.628432 -0.406175 0.072356
-0.351901 0.523854 -0.299175
0.021583 0.596190 0.187553
-0.005300 -0.637896 -0.098497
-0.127734 -0.082343 0.249086
-0.338471 -0.335883 0.247102
-0.766683 -0.121702 0.273864
-0.634454 0.130371 0.194018
0.167448 -0.934746 0.031483
-0.000902 -0.650591 -0.096411
0.238731 -0.023324 0.075774
-0.559323 -0.165513 0.271612
-0.401309 0.416288 -0.266331
-0.510634 -0.432658 -0.056226
-0.161058 -0.417563 0.432328
-0.471425 0.180528 -0.201025
0.383930 0.341214 0.181495
-0.215104 0.193671 0.106387
0.187620 -0.011322 -0.273209
0.109370 -0.646023 0.273946
-0.142469 0.648491 -0.363866
0.386763 -0.431153 -0.213620
0.639758 -0.172912 0.039239
-0.239609 -0.687172 -0.046405
0.093255 0.141296 0.270720
-0.153954 0.759039 0.181641
0.036737 0.477483 0.205659
0.084190 0.031856 0.133260
-0.124922 0.698683 0.190138
-0.024250 -0.087477 -0.218998
0.431892 0.419866 0.155408
-0.860913 -0.141270 0.294758
-0.175389 -0.049838 -0.201014
0.387165 -0.268627 0.318114
0.287813 -0.029114 -0.286742
0.207192 0.000132 0.076017
-0.355831 0.082308 0.268740
0.467939 -0.071959 0.259737
0.038279 -0.798925 -0.069900
0.424180 -0.261782 0.310096
0.283894 0.339332 0.199426
-0.549651 0.368214 -0.229555
-0.223943 0.337107 -0.279560
0.575004 -0.213311 0.059659
0.057221 0.598549 -0.387580
0.180920 -0.690341 0.279738
-0.081310 0.536932 0.155680
-0.561560 0.051856 0.198923
0.076938 0.329691 0.024678
-0.308841 0.229458 0.114742
-0.124509 0.161476 0.097774
-0.422000 0.096545 -0.190783
-0.455709 0.395782 -0.252197
0.279656 -0.479371 -0.184028
0.241587 -0.291199 0.348670
0.131029 -0.876985 -0.068573
-0.676222 0.034940 0.222796
-0.530435 -0.411470 0.244136
0.049355 -0.769352 -0.078491
-0.455275 0.058263 0.263006
0.224263 0.255793 0.015518
0.517675 0.470991 -0.144390
-0.335868 -0.581018 -0.053438
-0.161370 0.855315 -0.306632
0.590708 0.348793 -0.366078
-0.479989 -0.521186 0.016159
-0.595753 -0.171001 0.255039
0.481906 0.032785 -0.334635
-0.010809 0.750987 -0.327185
-0.688529 -0.050583 -0.111040
0.054609 0.254220 -0.309665
-0.182897 0.124580 0.116293
0.117828 0.133497 0.061656
0.852206 0.104735 -0.415628
-0.416070 0.059408 -0.183467
-0.521724 -0.190077 0.246375
0.184554 -0.819958 0.264460
0.231486 0.115962 -0.309519
0.377587 0.423223 0.164157
0.262709 -0.750777 -0.120009
0.772163 0.158222 -0.413651
0.295819 -0.766424 -0.122284
0.190768 0.340528 -0.352910
-0.893636 -0.229677 0.087063
-0.462806 0.480377 -0.269985
0.211143 -0.677371 0.230657
0.107732 0.268207 0.033120
0.191799 -0.896075 0.192420
-0.822175 -0.094546 -0.077761
0.514406 -0.215234 0.070697
0.403922 0.504822 -0.071945
-0.260796 0.548351 -0.320630
0.885103 0.156068 -0.372937
0.019638 -0.312818 0.337264
-0.290269 -0.180838 -0.151440
-0.102641 -0.730849 0.117873
-0.610944 0.104018 0.195832
0.058515 0.001516 0.314863
0.591765 -0.313869 -0.275882
-0.113454 -0.386657 0.432280
-0.423645 0.076070 0.169339
-0.492158 0.386378 0.111525
-0.261174 -0.646853 0.063051
-0.751977 -0.237734 0.297392
-0.044566 -0.054245 0.297181
-0.693768 -0.258358 -0.063384
-0.356847 -0.539318 0.198070
0.392998 -0.402418 0.284366
0.071797 0.044695 -0.265540
-0.142158 -0.703952 0.121832
0.396439 -0.170147 0.294338
-0.382742 -0.557372 0.095149
0.026331 0.442511 0.082332
0.588736 0.433666 -0.118854
0.120740 -0.221753 0.141061
-0.487446 -0.423609 -0.062319
0.725504 0.325701 -0.087932
-0.911699 -0.150640 -0.049475
-0.521307 -0.149065 0.380547
-0.063386 -0.320588 0.408655
-0.103994 0.892753 -0.086171
-0.409912 -0.126473 0.363433
0.568812 -0.116273 0.217877
0.229446 0.572529 -0.395404
-0.265003 -0.650457 -0.050220
0.090761 0.433376 0.178550
-0.607849 -0.412052 -0.043847
-0.147041 0.855229 -0.279479
-0.575063 0.279655 -0.205186
0.053933 -0.787796 0.248940
0.128615 0.555012 0.178084
0.338664 -0.005590 -0.300934
0.150246 -0.647212 0.348614
0.535766 0.426160 -0.242367
-0.038497 -0.286288 0.396583
-0.504659 -0.419689 0.269131
0.136435 -0.863953 0.181524
0.177913 -0.433789 0.391889
0.400937 0.314392 -0.383813
0.033310 -0.188095 -0.206438
0.088283 0.066594 0.182471
-0.687917 0.089664 0.212532
0.154895 0.389011 0.170021
0.054659 0.332244 -0.327225
-0.122214 -0.770086 -0.035599
-0.249018 -0.186268 -0.157438
-0.338520 -0.155308 -0.148738
-0.100693 0.134404 0.231451
0.032689 -0.254953 -0.191289
0.201294 -0.441535 0.389540
-0.622603 -0.319166 0.293069
0.649623 -0.057238 -0.343737
-0.917381 -0.225045 -0.031742
0.060374 0.732835 -0.244713
-0.592051 -0.253508 -0.082276
0.449378 -0.199922 -0.276595
-0.646437 -0.247248 -0.074167
0.509914 0.186051 -0.374015
0.322543 0.572385 -0.217765
-0.067278 0.355804 -0.311185
-0.051695 -0.463583 0.434563
0.041686 -0.628886 0.246482
0.736807 0.057992 -0.384917
-0.776645 0.060240 -0.120549
0.343729 0.282323 -0.009685
-0.386151 -0.414720 -0.082047
0.108076 0.154499 0.058638
-0.299211 0.313552 0.094139
-0.379356 -0.542055 0.146923
-0.047479 0.609601 0.196623
-0.592512 0.342177 0.139032
-0.682279 0.026833 0.225679
0.083157 0.446311 0.202262
-0.167418 -0.042958 0.364408
0.013238 0.820230 -0.074522
-0.838741 -0.032723 0.174829
0.382800 -0.464529 -0.205419
-0.000285 -0.105107 0.136002
0.156533 -0.664987 0.308071
-0.471389 0.531801 0.065425
0.376623 0.113166 0.020937
-0.160853 -0.253823 0.377762
-0.187975 0.151488 0.111128
-0.305396 0.507215 -0.303571
0.077024 -0.600535 0.346601
0.148017 0.583723 -0.400135
-0.169242 0.792187 -0.391505
0.390809 0.347472 0.148501
-0.095517 -0.297572 0.409101
-0.765838 0.000721 0.246177
-0.026646 -0.820473 -0.001818
0.111493 -0.655474 0.250057
0.355878 -0.179735 0.303593
-0.151461 0.773816 -0.019112
0.121773 -0.746538 0.258931
-0.161877 -0.218724 -0.165387
0.376219 0.043826 0.036606
0.146404 -0.537019 0.420626
-0.149586 -0.345627 0.429374
-0.369131 -0.346528 0.254863
0.077649 0.158778 0.214434
0.708875 0.150893 -0.045698
-0.356173 -0.609496 -0.008179
0.044302 -0.280101 0.167564
0.427627 0.454262 0.134195
-0.452559 -0.318855 0.263239
-0.533683 -0.106488 0.440950
0.531787 0.476143 -0.102164
0.208311 0.364605 0.200011
-0.003196 -0.680934 0.266045
0.251602 0.654962 -0.109247
0.327098 -0.120693 0.083404
-0.630490 -0.102814 -0.109448
0.716163 -0.137819 -0.222243
0.333191 0.262437 -0.360269
-0.764163 -0.101590 0.268899
0.384354 -0.041546 0.086056
0.107943 -0.678325 -0.109221
-0.045559 0.257655 0.062321
-0.039387 0.581927 0.201432
0.464604 -0.407883 0.122750
-0.120781 0.721836 0.184205
-0.386624 -0.564163 0.067642
0.810629 0.111533 -0.409881
0.003072 0.454783 0.074137
0.186838 -0.278709 0.142305
-0.560005 -0.073310 0.349254
-0.290718 -0.276265 0.225334
-0.137261 0.912198 -0.092295
-0.051816 -0.262991 0.347948
0.233461 -0.207339 0.118090
0.410580 -0.047848 0.264351
-0.580536 -0.061567 0.265344
-0.532402 -0.419140 0.217691
-0.000159 -0.301106 0.180070
-0.050704 -0.287113 -0.169460
0.065070 0.177585 0.257816
0.735988 -0.114346 -0.060917
-0.552413 -0.476773 0.008976
0.292449 -0.338343 0.350373
0.105117 -0.334680 0.169198
0.523143 -0.286774 -0.269967
0.238632 0.595355 -0.310331
0.098036 -0.643192 0.260641
-0.083726 0.859825 -0.144785
-0.760810 -0.020938 0.250170
-0.005341 -0.044723 0.299652
-0.553679 -0.401407 -0.055722
-0.590345 -0.151496 -0.105523
-0.056916 -0.038313 -0.224341
-0.121059 -0.171885 0.172161
0.074055 0.096756 0.143614
-0.272238 -0.456625 0.262672
0.596018 -0.324072 -0.147692
0.581684 -0.280786 -0.281559
-0.456548 -0.383006 -0.076861
0.038783 0.268845 -0.310185
0.351010 0.265845 -0.364154
-0.161100 -0.089877 -0.194508
-0.088581 0.675738 -0.379426
0.691834 0.174872 -0.403338
-0.353095 -0.581535 0.080398
-0.072905 0.528018 0.145394
-0.311827 0.151996 0.132690
-0.294038 -0.245169 -0.136309
0.499522 0.140700 -0.361994
0.167573 -0.697666 0.239922
-0.536689 -0.075414 0.436337
-0.317598 -0.179440 0.208257
0.128691 -0.218464 0.138929
-0.412545 -0.532428 -0.050949
-0.329848 -0.116704 -0.158940
0.173482 0.658374 -0.248578
0.439588 0.497804 -0.214453
0.193806 -0.944939 0.038385
-0.589162 -0.038144 0.246290
0.141910 -0.088879 -0.247763
0.044640 -0.429088 -0.154209
-0.477146 -0.291931 0.261485
-0.452146 0.232265 -0.216037
0.061107 0.724128 -0.269062
-0.256412 0.610942 -0.335477
-0.151602 0.366111 0.056483
0.177587 0.291905 -0.339665
0.332475 0.514868 -0.368864
0.031785 0.156757 0.186625
-0.055227 -0.083059 0.154366
0.044047 -0.315015 0.377455
-0.261919 0.115903 0.345211
-0.338787 0.709740 0.011942
0.335534 -0.468265 -0.196306
0.567070 -0.129522 -0.313029
-0.067772 -0.050693 0.345513
0.577206 0.404867 -0.226077
-0.396965 0.484240 0.072851
-0.348111 -0.019329 0.390717
-0.202571 0.659921 0.212447
-0.240072 0.823000 -0.030812
0.234539 -0.170357 -0.245646
-0.412327 -0.497088 -0.058937
-0.082945 -0.603307 0.262539
0.327152 0.052111 0.043330
-0.166285 -0.406225 -0.122437
-0.044187 0.156551 0.280695
-0.627389 0.298444 -0.040571
0.660934 0.094228 -0.379789
0.120100 0.392997 0.115255
0.092340 0.669299 0.128826
0.701974 0.117009 -0.036868
0.122362 -0.408156 -0.172520
0.581414 -0.199437 -0.299812
-0.047123 -0.257032 0.374549
-0.659811 -0.385015 0.074914
-0.555054 -0.460342 0.052519
-0.521280 0.285355 -0.215881
-0.206073 0.061282 0.347725
-0.355582 0.467603 -0.285877
0.398650 0.311692 -0.382805
0.204880 -0.318348 0.355097
-0.412797 -0.472027 -0.064492
-0.492837 0.200433 0.153473
-0.361426 -0.121268 0.330900
0.309113 0.155689 0.023186
0.255862 0.028278 -0.294061
0.116518 -0.552864 -0.138945
0.636827 0.337278 -0.311920
0.821820 0.233348 -0.265438
0.357307 -0.474011 0.156404
-0.026673 0.813857 -0.171601
0.464941 0.332729 -0.043911
-0.504102 0.053389 0.297764
0.374797 -0.675089 0.182619
-0.219223 0.629544 0.165776
0.157523 0.589298 0.016916
-0.753074 -0.342118 0.023390
0.561743 -0.179727 -0.300803
-0.018352 -0.809482 0.046550
0.360649 -0.544870 -0.183469
0.575507 -0.180768 0.052251
0.081170 0.545868 0.188445
0.866785 0.257882 -0.106881
0.651214 0.291522 -0.419716
0.538455 0.432312 -0.219032
-0.310538 0.098711 0.300897
0.376863 -0.441577 0.145685
0.328713 -0.118272 0.084402
0.690549 0.291354 -0.344977
0.126234 -0.877404 0.122231
-0.475218 -0.457120 0.214748
0.664746 0.073608 -0.020590
0.147765 -0.132208 -0.239041
0.109531 -0.840896 0.198248
0.098372 -0.598437 0.393637
0.015638 0.329988 0.035340
-0.884843 -0.233112 0.093723
-0.681000 0.204525 0.185483
0.202178 0.556594 0.164854
-0.267389 0.701931 -0.354025
0.074609 0.043526 0.099525
0.129273 -0.490309 0.413116
-0.025614 0.325732 0.043517
-0.157587 -0.452712 -0.113502
-0.936647 -0.200141 0.092142
0.044304 0.528333 -0.369524
0.041034 0.653673 -0.397147
-0.232987 -0.695524 -0.026973
0.160452 -0.139765 -0.239561
-0.315792 -0.106707 0.352647
-0.622549 0.188163 0.178934
-0.645943 -0.400910 0.054435
0.231006 0.583351 0.139877
0.025549 -0.034758 0.314961
0.089559 0.487917 0.200013
-0.165071 0.665669 -0.363774
-0.126187 0.786344 0.056990
-0.573923 -0.432100 0.099948
0.209878 -0.012406 0.078367
-0.887562 -0.097093 -0.065430
0.375160 0.492368 -0.353759
-0.124891 0.323606 -0.293859
-0.137301 0.092277 0.328716
-0.326041 -0.206036 0.215717
-0.183425 0.231573 0.092317
0.153738 -0.498794 -0.157622
0.161517 0.444940 0.197087
-0.246308 0.093487 -0.220843
0.138710 -0.457639 -0.164249
-0.924240 -0.207983 -0.034380
-0.763054 -0.303258 0.119222
0.062556 0.634662 -0.396637
-0.012683 -0.755566 -0.070735
0.255266 -0.815261 -0.104201
-0.001401 0.463615 0.091701
-0.102670 -0.266607 0.239986
-0.225964 0.198684 -0.248068
0.060430 -0.518468 0.218362
0.157238 -0.455652 0.400426
-0.022582 -0.362047 0.410840
-0.665242 -0.160517 -0.090386
0.468159 -0.104425 0.060399
-0.160387 -0.541242 0.262131
-0.343959 0.196321 -0.226886
-0.799050 -0.126103 0.280519
0.091612 0.185763 0.054487
0.212508 -0.636801 -0.136863
0.277905 0.240716 -0.345707
0.901612 0.226101 -0.134253
0.239895 0.092683 0.049474
-0.162586 0.613135 -0.352391
0.068345 0.093800 0.114827
0.244822 -0.178287 0.109567
-0.110923 -0.601702 -0.088153
-0.226716 -0.338047 -0.127198
-0.120712 0.567073 0.169452
-0.901575 -0.251657 0.006874
0.430086 0.145607 0.004283
0.250062 0.624719 -0.201631
-0.368894 0.535564 -0.298835
-0.663820 -0.305008 0.297097
-0.088557 0.342751 -0.304524
-0.472629 0.042260 -0.169711
0.393858 -0.038959 0.265278
-0.230434 -0.624171 0.188923
0.347213 -0.485500 -0.194473
-0.111421 -0.346725 -0.145424
-0.174964 0.413550 -0.305328
-0.201552 -0.341484 -0.130829
0.060002 0.438425 0.134652
0.341558 0.598792 -0.103302
-0.243063 -0.111398 0.236101
-0.609480 -0.118754 0.245689
-0.327682 0.472451 0.063378
-0.312226 -0.510527 -0.073433
0.856490 0.208440 -0.272787
0.019266 0.689620 0.049154
-0.258668 -0.399086 0.286038
0.096449 0.727216 -0.068161
-0.320948 -0.534712 0.280357
-0.629387 0.240082 -0.186776
-0.541464 -0.226050 -0.097307
0.158807 0.497068 0.185835
-0.202168 -0.626405 0.236381
0.151683 0.705196 -0.072874
-0.273494 -0.397432 -0.105652
-0.524418 -0.374348 -0.066930
0.197712 0.387253 0.203729
0.420471 -0.598629 0.019054
-0.090120 0.198816 0.083356
0.754754 0.317795 -0.143978
0.743584 0.326230 -0.140399
-0.381151 0.567419 0.051372
-0.316548 -0.112748 0.320853
0.069245 0.640207 -0.001381
0.123172 -0.222045 -0.214528
-0.042698 0.754992 0.123962
0.104033 0.655877 -0.388797
-0.399423 0.302679 -0.241104
0.625597 -0.000312 0.002890
0.430949 0.491893 -0.248459
-0.361622 0.083197 0.370018
0.430436 0.412625 0.034916
0.188219 0.299287 0.012042
-0.074277 -0.399512 -0.140050
-0.087123 -0.176416 -0.187988
-0.244786 -0.613269 0.193711
-0.221165 -0.607450 0.256101
-0.084260 0.522122 0.106240
0.042874 -0.846728 0.053509
0.273593 -0.700088 0.221912
0.541441 0.411302 -0.275452
-0.008172 -0.142626 -0.209406
0.422289 -0.354465 0.118139
0.234873 0.627612 -0.069981
-0.092099 -0.634777 -0.084007
-0.523902 0.187444 0.161831
-0.765394 -0.340293 0.005223
-0.487824 0.133196 -0.187507
-0.140093 0.100168 -0.240935
-0.863186 -0.196957 0.242067
0.364256 -0.581253 -0.175916
-0.259548 0.380904 0.072047
-0.018306 -0.323325 -0.166984
-0.258757 0.266992 0.097533
0.294853 0.480272 -0.402562
-0.098905 -0.118543 0.156284
-0.064193 -0.062733 0.275768
-0.024652 -0.268657 0.383148
-0.542405 -0.100194 0.406450
-0.686656 0.208241 -0.043832
-0.263050 -0.097594 0.335962
-0.105850 0.825915 -0.287383
-0.165374 0.591727 -0.347088
0.093883 0.162040 0.059426
-0.121588 -0.666932 0.270657
-0.015639 -0.010591 -0.237801
-0.501756 -0.062210 -0.141112
0.174563 -0.962771 -0.037785
-0.101662 -0.761620 0.028746
0.287329 -0.300619 0.342783
-0.646243 -0.104915 0.249010
0.304489 -0.636147 0.202121
0.027140 -0.841320 0.039406
-0.334347 -0.175261 0.210248
0.537477 0.405547 -0.300055
0.498163 0.125623 -0.003136
0.116100 0.679960 -0.294494
-0.782188 -0.122030 0.276652
-0.502189 -0.159603 0.299477
-0.291481 0.735578 -0.357377
-0.085775 -0.191024 0.170291
-0.690830 0.203763 -0.088872
-0.746491 0.014643 -0.115569
-0.090376 -0.480312 0.381951
0.096145 -0.644250 0.253894
-0.160960 -0.091974 0.238518
0.028351 0.669952 0.008366
0.297328 0.165380 -0.332159
0.799146 0.283008 -0.161948
-0.575301 0.224542 -0.192746
0.441172 -0.050074 0.046361
0.210112 -0.678483 -0.127067
-0.155466 -0.439368 0.378540
-0.395309 0.086008 0.162144
-0.219419 0.347245 -0.282633
0.403592 -0.002421 0.042219
0.483512 -0.412179 -0.234821
0.509563 0.262222 -0.035860
0.374174 0.463322 -0.412631
-0.107000 0.142114 0.099066
0.670048 0.361571 -0.086295
-0.014735 0.776026 -0.059682
-0.517988 -0.135114 -0.121871
-0.811250 -0.049155 -0.089884
0.625079 0.339101 -0.329000
-0.792899 -0.204671 -0.058111
0.206919 0.595090 0.128524
-0.059161 0.155289 0.292611
-0.191599 -0.592956 0.279227
0.601402 -0.240846 0.061234
-0.259726 -0.596794 0.213859
-0.159729 -0.499613 -0.102577
0.251017 -0.523797 -0.169023
0.144021 0.013160 -0.271086
0.411337 -0.348957 -0.236411
-0.227682 0.724470 -0.010816
0.448410 0.011823 0.031171
0.111524 -0.531842 -0.142800
0.031534 0.153928 0.171604
-0.256611 -0.300274 0.224765
-0.937798 -0.177064 0.015808
0.166416 -0.399453 -0.182187
0.086931 0.154706 -0.292936
-0.798812 -0.155749 0.287146
0.168839 0.143773 -0.304811
-0.237237 0.636741 0.132214
0.141233 -0.823405 -0.082411
0.677032 0.321128 -0.282780
0.032196 -0.737828 -0.082579
-0.635067 0.292270 -0.172773
0.110348 0.023031 0.245541
0.194863 -0.326244 -0.203635
0.245033 -0.673650 0.220963
0.042333 0.794187 -0.097785
-0.520898 0.029846 0.409895
-0.926853 -0.166037 0.151077
-0.007395 -0.435159 0.211492
0.343799 -0.443281 -0.203373
-0.390188 -0.056674 0.406482
-0.938043 -0.193610 0.108785
-0.659985 -0.344453 0.194537
-0.257826 0.570234 0.029156
0.277438 0.411521 0.184317
-0.162557 0.597061 0.178098
0.195794 -0.493837 -0.166097
-0.209650 0.106688 -0.230229
-0.239188 -0.278619 0.216845
0.276296 0.563756 -0.331741
-0.029978 0.129681 -0.266846
0.082109 -0.377519 0.182861
0.364009 0.478065 0.082909
-0.015939 0.833045 -0.094325
