0.320266 -0.117453 -0.220954
-0.375580 -0.743117 -0.299987
0.402011 0.735492 0.069534
-0.295389 -0.766484 -0.375955
0.470453 0.520628 -0.115222
-0.038359 -0.416718 0.046715
-0.417333 -0.254407 0.238925
0.182282 0.784645 0.239416
-0.253078 -0.080213 -0.274460
-0.046591 0.224462 0.136646
0.546577 0.171388 -0.156861
0.626851 -0.105749 0.158936
-0.513709 -0.108109 0.112525
-0.200806 -0.827190 -0.354370
0.534376 0.498532 -0.066919
-0.341513 0.582613 0.105094
-0.242000 0.234711 0.272755
-0.212274 -0.710658 0.195354
-0.394224 0.572616 -0.058683
-0.303176 -0.667620 -0.362757
0.192428 -0.322003 0.083784
-0.678181 0.314207 -0.262201
-0.532403 -0.387518 0.000201
-0.122663 -0.797729 -0.269624
0.431735 0.266271 -0.155202
-0.435454 0.253231 -0.245949
0.479646 -0.066509 -0.197403
-0.740755 -0.066974 0.024222
0.080800 -0.381880 -0.282940
-0.063135 0.328415 0.183115
-0.151391 0.683569 -0.004819
-0.847178 0.272470 -0.285141
-0.325145 0.426536 0.233967
-0.398675 -0.265541 0.239261
0.802781 -0.338218 -0.202743
0.362710 0.005422 0.147596
-0.603121 0.312356 0.092035
-0.046942 0.330262 -0.195215
-0.011359 0.450584 0.380352
0.450008 -0.497959 -0.261523
0.042244 0.732587 0.217690
-0.233104 -0.280149 0.046085
0.009247 0.261123 0.147560
-0.234883 -0.248628 0.050366
0.172235 -0.573880 0.046055
-0.192967 -0.585224 0.215091
-0.431344 0.324693 -0.235411
-0.637620 0.020853 0.047229
0.652274 -0.457725 0.054207
-0.038824 0.378217 -0.187593
-0.523229 -0.110575 0.090072
-0.228820 0.315768 0.338972
0.137010 0.163683 0.146863
0.505752 0.148689 -0.164260
-0.180196 0.612909 0.177943
-0.400240 -0.478018 0.024415
-0.363535 -0.587629 0.107347
0.200838 0.528969 0.413203
-0.296972 -0.263911 -0.304966
-0.140410 -0.115935 0.078836
-0.530770 -0.041062 -0.297385
0.502656 0.172267 -0.161240
0.365449 -0.042495 -0.205710
-0.595129 0.123655 -0.280663
-0.058921 -0.347769 -0.292434
0.184850 0.656524 0.379867
0.503243 -0.395023 -0.241493
0.078634 -0.094940 -0.242539
0.040387 0.411871 -0.174708
0.892515 -0.349372 0.122787
-0.814102 0.086713 0.028872
0.036379 0.599373 0.231547
0.637434 -0.468760 0.096855
-0.339457 0.189866 0.101724
0.370509 0.092009 0.160654
-0.304120 0.569489 -0.187712
-0.585498 -0.080433 0.038233
0.684351 -0.418593 -0.202918
0.336885 0.852476 0.135580
-0.633977 -0.048353 0.037805
-0.315426 0.443060 -0.206770
-0.460887 0.041329 -0.278557
0.185919 0.077332 -0.207151
-0.013525 -0.105493 0.301404
-0.700974 0.139539 -0.289266
0.258320 -0.616757 -0.259566
-0.805289 0.213508 0.057315
-0.862427 0.302038 -0.275663
0.569314 0.102645 0.182540
-0.579410 0.263627 -0.259236
-0.594425 -0.134135 0.029715
0.303093 0.225974 -0.174095
-0.292117 -0.321357 -0.312602
-0.147466 -0.695152 0.135603
-0.378349 0.373886 0.123789
0.367241 -0.572223 -0.178908
-0.679988 0.017196 0.042368
-0.814648 0.374706 -0.089191
0.625844 -0.030046 0.169550
-0.430263 -0.420116 -0.340746
0.672355 -0.431633 -0.123964
0.024143 -0.278061 0.072753
0.666289 -0.426020 -0.215831
0.157598 -0.192739 0.306596
0.465916 -0.530873 -0.116692
-0.150632 0.666898 0.179071
-0.037612 0.510115 -0.168796
-0.370590 0.339517 -0.227084
0.472413 0.330858 0.204915
-0.277748 0.637573 -0.175369
0.716582 0.071458 -0.153580
0.647519 -0.372179 -0.223468
0.369440 -0.161553 -0.222157
-0.329790 -0.193448 -0.298355
0.391032 0.175429 -0.172235
-0.505154 -0.276969 -0.328157
0.016542 0.002906 0.319833
0.848397 -0.303709 -0.193181
0.045837 -0.413957 0.055738
-0.504175 0.215300 0.088438
0.171392 -0.198797 0.106968
-0.040833 0.312050 -0.197167
0.029936 0.051144 -0.226849
-0.008440 -0.358032 -0.288712
0.474647 -0.469085 0.091894
-0.025531 0.565799 0.274901
-0.303610 0.333317 -0.221095
0.100075 -0.399745 0.063310
0.113914 0.811522 -0.110591
-0.546158 0.344270 -0.244410
-0.483826 -0.211238 -0.316665
0.474636 -0.533682 -0.041420
-0.323021 -0.676376 -0.019228
-0.530021 -0.451727 -0.008645
-0.702657 0.319701 0.082871
-0.016897 -0.534624 0.032223
-0.362326 0.403638 0.289531
0.634357 -0.468005 0.072839
-0.136423 0.318540 -0.206048
-0.202270 -0.753439 -0.017759
-0.084442 0.111883 0.116827
-0.191284 0.197471 0.117991
-0.254743 0.173214 0.108051
-0.054356 -0.724794 -0.345343
0.281721 0.119517 -0.191357
-0.504053 0.012050 0.059676
0.542960 0.361633 0.216505
-0.512219 -0.544370 -0.032960
0.337213 0.879933 0.058100
0.346522 -0.299477 -0.244033
0.804489 -0.181853 -0.180431
-0.534336 -0.458295 -0.010017
-0.168334 -0.744289 -0.012985
0.304489 0.896286 0.048584
0.544836 -0.287091 0.311888
0.555601 -0.464318 0.100868
-0.387540 -0.809714 -0.045558
-0.397775 0.291753 0.110170
0.231422 -0.443686 0.070555
0.426364 0.070927 0.163395
-0.024365 0.742084 0.018230
0.368738 -0.292106 0.236097
-0.299687 0.402858 -0.210848
0.220931 -0.038564 0.334916
-0.124040 0.218370 -0.218960
0.001400 0.650327 0.201857
0.146614 -0.677306 -0.181686
-0.497372 0.336695 -0.240481
0.361602 -0.569841 -0.233700
0.708480 0.072654 -0.154242
0.506950 -0.190483 -0.212155
0.318671 -0.097362 -0.218274
-0.440493 0.299957 0.106952
-0.384762 -0.019270 0.067471
0.401952 0.488915 0.220069
0.549835 -0.371879 -0.233440
0.469928 0.060134 -0.180470
0.313417 0.538590 0.232019
0.006184 0.652102 -0.144204
0.028024 0.372584 0.176157
0.470792 0.207293 0.206126
-0.197494 -0.528017 0.222726
-0.365339 -0.256355 -0.310905
-0.246910 0.169310 0.108302
-0.313517 0.531080 0.152690
0.805079 -0.288347 -0.195447
-0.438053 -0.584856 -0.363283
-0.219897 -0.719172 0.021564
-0.235070 -0.183593 0.059554
0.119093 0.668829 -0.130261
0.832917 -0.355291 -0.120520
0.167702 0.514646 -0.147106
-0.472562 -0.609220 -0.025051
0.376033 0.432363 0.209405
-0.407011 -0.477761 0.064034
0.496862 -0.236808 -0.219748
0.403573 -0.144686 -0.216270
0.435735 0.485322 -0.123780
-0.179423 0.645516 -0.164165
0.566082 -0.176871 -0.204166
-0.301774 0.518213 0.152072
0.104924 0.248257 0.155547
0.254562 -0.564956 -0.291045
0.404278 -0.234290 0.326002
-0.069698 0.078077 -0.233251
0.738969 -0.115240 -0.177717
-0.613922 0.468779 -0.070122
-0.478683 -0.617012 -0.032850
0.258647 -0.073873 0.333783
-0.091202 -0.041640 0.262013
-0.182315 -0.056784 0.082915
-0.646692 0.441020 0.060640
0.416350 -0.463538 0.086702
0.434453 0.007841 0.155293
0.320439 -0.600430 0.057490
0.092998 -0.158333 -0.250041
-0.400717 -0.536323 0.187650
-0.122065 0.705939 -0.095163
-0.189105 -0.651896 0.206048
0.307303 -0.600125 -0.186644
0.264625 0.468190 0.203056
-0.130341 -0.786122 -0.361815
0.525903 0.306353 -0.139873
0.893896 -0.330574 -0.073032
-0.394668 -0.733231 -0.034622
0.525062 0.136895 0.182853
0.369843 -0.140369 -0.219116
0.361004 0.591553 -0.116402
-0.015146 -0.629922 0.018911
0.413011 0.047402 -0.188107
-0.308627 0.598250 0.105789
-0.895706 0.323186 0.049196
0.532254 -0.482396 0.095915
-0.353169 -0.804165 -0.040410
-0.314618 0.514486 0.150228
0.378573 -0.564302 -0.206015
0.435163 -0.393642 -0.248277
-0.408746 -0.516715 -0.352215
0.002387 0.215612 0.140414
-0.068836 0.013631 0.219224
-0.896194 0.335741 -0.167272
-0.363847 0.085262 -0.262388
-0.073038 -0.095470 0.296722
-0.321694 0.417175 -0.211077
0.064732 0.356241 -0.180088
0.670925 -0.432867 -0.118013
0.241659 -0.161511 -0.235250
0.402067 -0.576189 0.043425
-0.255187 0.618430 0.163387
0.732651 -0.397652 -0.180022
-0.301610 -0.802538 -0.381697
0.143715 0.001065 -0.222275
-0.434357 -0.540563 -0.011414
0.138308 -0.264636 0.086358
-0.192006 -0.705119 0.013616
-0.309235 0.214742 -0.238459
0.197086 0.435491 0.368462
0.614246 0.174020 0.197252
0.493243 0.451038 0.224065
0.219387 0.837326 0.246450
-0.496663 0.453236 0.122894
-0.409492 -0.532887 -0.354582
-0.004315 0.041382 0.323142
0.580730 -0.192727 0.283936
-0.666357 0.022069 -0.302347
0.181610 0.606663 -0.132653
0.312196 0.012049 0.143355
-0.206868 -0.125279 -0.276103
-0.573496 -0.229057 0.018423
-0.173264 0.168710 -0.231036
0.602692 0.032069 0.175970
0.014150 -0.738680 -0.201898
0.121314 -0.128975 0.311903
-0.537068 -0.313560 0.010194
-0.583282 0.373369 0.102707
0.464708 0.247091 -0.154537
-0.074435 0.066456 -0.235381
-0.080625 0.086530 0.113629
-0.429298 -0.202881 0.244993
0.159986 0.005404 -0.219993
0.035415 0.601338 0.205373
-0.121061 -0.585518 0.017678
0.003372 0.388326 -0.181836
0.214160 0.474717 -0.147996
0.708186 -0.425642 -0.003947
-0.490253 -0.526844 -0.211987
0.623830 0.102253 -0.158729
-0.412345 0.457778 -0.214622
-0.520325 -0.288790 0.223499
-0.113745 -0.770545 -0.357909
-0.393466 0.379293 -0.223798
-0.299774 0.607522 0.051323
0.480619 -0.062955 -0.196800
-0.290604 -0.402713 -0.323964
0.206443 -0.501231 0.059847
-0.004380 -0.743256 -0.248016
0.839623 -0.372547 0.100346
-0.274447 -0.734210 -0.019988
-0.416896 -0.474646 -0.000292
-0.270814 -0.594595 -0.349101
-0.220257 0.523952 -0.185561
-0.127292 0.688342 -0.152757
-0.373402 -0.744172 -0.310052
0.118579 -0.253149 0.085961
0.339658 0.695582 -0.103862
0.381070 -0.368345 -0.250241
0.507909 0.181135 0.187357
0.558873 -0.248512 0.313018
-0.401689 0.310887 0.112478
-0.469905 -0.602732 -0.023860
0.343594 -0.360452 0.093838
-0.252739 0.633474 0.013594
-0.004973 0.516663 0.390362
0.203542 -0.448178 0.067061
-0.395555 -0.010220 0.067646
-0.093974 0.270258 -0.208532
0.711853 -0.411006 -0.143065
-0.338951 -0.673935 -0.367319
0.006427 -0.005462 0.317612
-0.858561 0.189691 0.010367
-0.024844 0.003070 -0.239271
0.061167 0.117636 -0.214234
-0.246883 0.625859 0.125997
-0.494351 -0.188651 -0.314546
-0.654057 -0.075716 0.031873
-0.234073 -0.198699 -0.289286
-0.136152 -0.801759 -0.295652
-0.067576 0.451132 0.374667
0.241678 0.871575 -0.008401
-0.032860 -0.775019 -0.051903
0.838802 -0.352797 -0.117110
0.313441 0.768105 0.250521
-0.172491 0.370663 0.352519
0.065880 0.115890 0.132805
-0.117206 -0.058291 -0.257427
0.275810 -0.077345 0.335051
-0.117781 0.305512 0.148687
-0.374639 -0.447737 0.215931
0.633895 0.265528 -0.134582
0.685514 -0.213549 0.149688
0.326968 0.658959 -0.110348
-0.051731 -0.436650 -0.304280
-0.161929 0.276597 0.233284
-0.059531 -0.494547 -0.313277
-0.321546 -0.161517 0.053814
-0.573805 0.487507 -0.065521
-0.552984 0.094533 -0.280466
-0.491618 -0.105901 0.202566
0.520668 0.144784 0.183519
0.803630 -0.324810 -0.200758
0.641526 -0.299494 0.133011
-0.727313 0.397011 -0.255515
-0.643068 0.458102 -0.105102
0.104645 -0.692781 -0.230958
0.041421 -0.147779 0.301051
0.726119 -0.426700 0.099907
0.420769 0.091385 -0.181085
-0.222711 -0.157126 -0.282235
0.112450 -0.124515 0.311626
-0.328003 -0.826436 -0.354128
-0.447666 -0.345527 -0.331970
0.737678 -0.420463 0.092157
0.295841 -0.596410 -0.285828
-0.294808 -0.858813 -0.388967
-0.734225 0.112639 0.050320
0.706507 -0.410225 -0.179052
-0.184753 -0.813640 -0.371289
0.227518 -0.477211 0.065408
0.454151 -0.128954 -0.208857
0.195971 0.569379 0.418425
0.208139 -0.572614 -0.296888
-0.096523 -0.053443 -0.254620
-0.067850 -0.180747 0.077099
-0.050450 -0.309115 0.060710
-0.813974 0.387978 -0.229002
0.408475 0.248420 -0.160114
-0.090926 -0.564831 -0.326446
-0.639841 -0.051124 0.036812
0.459893 0.646664 -0.030827
0.208451 -0.038417 0.333657
0.497711 -0.034112 0.155839
-0.755364 0.066868 -0.266350
-0.690709 0.244322 0.073424
-0.575307 -0.238410 0.016913
-0.015069 0.304315 -0.195621
0.476961 0.314763 0.203103
-0.234302 -0.865107 -0.117675
0.176408 0.424856 0.376687
-0.028289 0.557831 0.346700
0.360527 -0.098545 -0.214150
0.031155 0.251757 -0.198323
0.046361 -0.249174 0.079120
-0.054016 0.432450 -0.181473
0.384543 -0.056090 0.141125
-0.285168 -0.015597 -0.268602
-0.732713 0.210641 -0.282453
-0.002295 -0.352256 -0.287264
0.085942 -0.320309 -0.273696
0.269695 0.872730 0.123548
-0.473701 0.517927 0.122063
0.435981 0.102985 -0.177883
-0.059244 -0.278399 -0.282646
-0.771892 0.036261 0.035646
-0.148894 0.030985 -0.248036
-0.016791 0.752728 -0.057645
-0.264022 -0.051382 -0.271500
-0.799738 0.121736 -0.153015
0.524026 -0.521097 0.077304
0.582033 -0.231828 0.136492
-0.097711 -0.385700 -0.301781
-0.589867 -0.147722 0.028259
-0.472025 -0.487864 -0.354618
-0.717966 0.262108 -0.273655
-0.084599 -0.418344 0.041745
-0.111222 0.325699 0.352434
-0.350756 0.576645 0.121882
0.591067 -0.463410 -0.199913
0.045109 0.603682 0.230030
0.068732 0.386044 0.240674
0.076584 -0.064213 0.316486
0.104192 0.621151 0.345990
0.756889 -0.069270 0.169862
0.477561 0.423340 -0.128267
-0.271819 0.446873 0.289297
-0.263460 -0.535824 0.214858
0.477775 -0.519105 -0.182608
0.096216 0.667005 0.213938
-0.027951 -0.287073 0.066137
-0.437263 -0.181708 -0.307711
-0.164450 -0.738299 -0.011738
-0.382628 -0.521271 0.038514
-0.090614 0.672737 0.195597
0.428106 0.228849 0.394013
0.736470 -0.002423 0.107575
-0.060603 -0.003404 0.311031
0.182333 -0.073561 -0.228881
-0.201032 -0.319658 0.043780
-0.545704 0.508123 -0.143252
-0.046219 0.744996 -0.125857
-0.090177 0.707207 0.055518
-0.214122 0.254345 0.204480
0.158730 0.655386 0.257513
0.121952 0.071392 0.132254
0.347122 -0.590553 0.061623
0.848416 -0.372087 0.140708
0.265175 0.513544 -0.137270
0.579909 -0.288891 0.128195
0.199427 0.446999 0.401454
-0.315602 0.422914 0.322271
0.166334 -0.221048 0.242021
0.194675 0.383358 -0.162928
0.204041 0.839415 -0.097402
-0.285083 -0.744309 -0.371759
0.205565 0.291030 0.195148
0.502105 -0.077074 0.150207
-0.838352 0.237601 0.057337
-0.039658 0.158418 0.128006
-0.004996 -0.511152 -0.310037
-0.123674 0.348050 0.354322
0.692553 -0.155931 -0.188236
-0.166887 0.682669 -0.074983
0.252102 0.601672 0.423648
0.432165 0.004892 0.154641
0.248922 0.468575 0.278483
0.241983 -0.631040 -0.189580
-0.051314 0.060755 0.213206
-0.206836 0.031121 -0.253957
-0.332960 -0.037944 -0.276665
0.139441 -0.677862 0.027972
0.527836 -0.158184 -0.205441
-0.508479 -0.272071 0.018998
-0.098980 -0.229073 -0.279737
-0.022013 -0.755706 -0.204492
-0.410877 -0.111961 0.259753
-0.597561 0.117946 0.065082
-0.217154 -0.773609 -0.368944
0.125355 0.355448 0.172817
0.101466 0.081590 -0.215206
0.478883 0.177494 -0.162937
-0.554452 0.107631 -0.278762
-0.246712 -0.403458 0.235315
-0.358983 0.141253 0.092840
-0.144706 0.697540 -0.121197
-0.666514 0.371479 -0.252896
0.229571 0.798887 -0.100523
0.239303 0.873302 -0.039289
0.625444 -0.469811 0.046397
0.124815 -0.361992 0.071191
-0.012057 0.711275 0.209106
-0.426451 -0.464533 0.143424
0.593766 0.119033 0.187367
0.121866 -0.062943 -0.233577
-0.266503 0.152830 0.103960
-0.578598 0.049712 0.057366
0.507056 -0.515456 -0.071069
-0.547321 -0.301875 -0.336006
-0.469850 -0.266360 -0.323036
0.668508 -0.429967 -0.161787
0.088246 0.804143 -0.071289
-0.134384 -0.313946 -0.295382
0.523623 0.443424 -0.120701
0.174145 0.838145 -0.100647
-0.200109 0.497045 -0.187305
0.166266 -0.258416 -0.256699
-0.146608 -0.658584 0.209458
0.562754 -0.486500 -0.096573
-0.032649 -0.210157 -0.270259
-0.062499 -0.373140 -0.296393
-0.454275 -0.376540 0.067072
-0.003090 -0.096805 0.303704
0.392620 0.065517 0.159170
0.314430 0.121801 0.258677
-0.255398 -0.017072 -0.265758
0.393333 -0.556940 -0.209409
-0.757879 0.394276 -0.007839
0.282365 0.886762 0.037370
0.176809 -0.654765 -0.269401
-0.650299 0.345417 0.091879
-0.350515 -0.471824 -0.339890
-0.116809 -0.112997 0.289754
-0.392248 0.235334 -0.244054
-0.237153 -0.731134 0.061758
0.701477 -0.409039 -0.217783
0.523661 -0.515926 0.019602
-0.823230 0.119577 0.042178
0.250603 -0.365638 0.083571
-0.907260 0.313496 -0.040178
0.026243 -0.265707 0.074717
-0.378215 0.475776 0.138228
-0.391972 0.583857 -0.168432
-0.156260 -0.654647 0.209026
0.353858 -0.596488 0.014066
-0.242068 -0.275156 -0.300930
0.156844 0.730819 -0.117615
-0.277323 0.230180 0.139594
-0.458703 0.284551 -0.243899
-0.490218 0.524213 -0.030938
-0.480664 -0.233643 0.235372
0.537726 -0.320410 0.212222
0.117031 0.627603 0.342511
0.015255 0.578843 0.344308
0.231131 -0.315429 0.088683
-0.852063 0.369889 -0.272143
0.676892 -0.084119 -0.179675
0.244371 0.076861 -0.201225
-0.311188 -0.663298 0.003752
-0.823051 0.367145 -0.050875
0.132292 -0.303092 0.080297
0.231487 0.070562 -0.203438
0.478090 -0.540937 0.054717
-0.289792 0.277568 -0.227571
-0.198151 0.625914 -0.168860
0.127162 0.811314 -0.109262
-0.662948 0.457249 -0.198367
-0.592999 0.425779 -0.237672
0.792359 -0.370766 -0.162516
0.511977 -0.332741 0.177708
0.149557 0.583844 0.415715
0.634099 -0.104346 -0.186926
0.138336 -0.681368 -0.180510
-0.318347 -0.738722 -0.027575
0.776960 -0.058318 0.020196
0.133999 0.074797 0.133971
0.209625 -0.231527 0.098356
-0.364320 0.544989 -0.197352
-0.172432 -0.819586 -0.290204
0.061766 0.533269 -0.155330
-0.352638 0.366524 0.138072
-0.138567 0.453299 -0.187189
0.089403 -0.720262 -0.012840
-0.414277 0.084133 -0.267718
-0.191687 -0.704466 0.008209
-0.117400 -0.810370 -0.106026
0.384807 -0.227236 -0.229880
-0.059457 0.035975 0.195285
0.090754 0.675427 0.214571
0.308676 0.139737 -0.185731
-0.718129 0.004246 0.036625
-0.490650 0.539010 -0.192919
-0.132111 -0.821854 -0.057874
0.150956 0.806439 -0.107513
0.652817 -0.451902 0.112592
-0.045995 -0.322635 -0.287551
-0.069814 -0.549422 -0.322100
-0.781567 0.385350 -0.033579
0.325891 0.455216 0.207500
-0.893136 0.323497 0.059090
0.084940 -0.180823 -0.254051
0.414185 0.444546 -0.131762
0.276688 0.216761 -0.178106
0.726387 -0.264961 0.146600
0.743782 -0.050800 0.178703
-0.210990 -0.830401 -0.372195
0.113184 -0.006667 -0.226499
0.416791 0.159989 0.374031
0.778105 -0.077408 0.065893
-0.035854 -0.769769 -0.124016
0.094692 -0.010751 0.325911
-0.485398 -0.281201 0.228154
0.148355 -0.383727 0.070527
0.189608 0.836655 0.100196
0.318738 0.516401 0.261365
0.218937 -0.651876 -0.083433
0.619379 0.052745 -0.166195
-0.725711 0.404002 0.052980
0.376673 -0.566168 -0.195667
0.318424 -0.434838 -0.266077
0.097243 -0.478747 -0.294968
-0.443117 -0.168685 -0.306467
-0.445775 -0.411689 0.113140
0.643268 0.259348 -0.134496
-0.050287 0.462300 -0.176865
0.018738 -0.452750 0.047468
0.130617 -0.651739 -0.316037
0.241606 -0.294569 -0.254093
0.070638 -0.598585 0.032142
-0.216333 0.558165 0.166488
-0.417508 0.282920 -0.239907
-0.119164 0.559923 0.176698
0.451097 -0.314584 -0.235451
-0.431998 -0.249519 -0.316771
0.215744 -0.644892 -0.175291
0.270821 0.868813 0.171636
0.408465 0.172604 0.194922
0.412695 0.196945 -0.166968
0.079984 -0.700259 -0.277337
-0.508266 0.111697 0.073352
-0.566779 -0.129864 0.073839
-0.513252 0.525178 -0.160093
-0.057332 0.731723 -0.039851
-0.204296 0.489465 0.177524
-0.874096 0.334360 0.039959
-0.413151 0.348215 -0.230216
-0.490566 -0.342901 0.218889
0.183036 0.434400 0.397990
0.100072 -0.167720 -0.250644
0.443529 -0.423216 0.095197
-0.198785 0.398380 0.353747
0.477637 0.624477 -0.075470
0.211300 -0.008823 -0.216746
0.272832 0.401728 0.194488
0.307042 0.886206 0.170572
0.227381 0.349742 0.182469
0.436083 -0.070962 0.144304
0.438437 0.212251 0.385179
-0.426278 0.544139 0.083523
-0.128277 0.101245 0.110827
-0.314649 0.187510 0.103934
-0.505006 -0.168549 0.242092
-0.063292 -0.765911 -0.307105
0.201849 -0.185418 0.312169
0.028121 0.761981 0.073967
-0.532839 0.217884 0.085866
0.422560 0.608106 -0.107747
0.474416 0.440619 0.220660
-0.333043 0.419494 0.269284
0.431915 -0.541903 -0.172874
0.059149 0.127531 -0.213040
0.667954 0.110827 -0.152992
0.236581 -0.267209 -0.250735
-0.689524 0.078361 0.050050
-0.739413 0.084125 0.045752
0.350510 0.793304 0.217214
0.078027 0.616239 -0.141917
0.030382 -0.456900 0.048074
0.742799 -0.018517 0.114155
0.194833 0.275603 0.301498
0.010635 0.766376 -0.063611
-0.098632 -0.181387 -0.272950
0.514880 0.171052 -0.160158
0.700406 0.163755 -0.134784
0.212845 0.863261 -0.067267
-0.562106 0.164308 0.075280
-0.239565 0.120860 -0.244608
0.745885 -0.213941 0.155822
0.398737 -0.293342 0.108992
0.840575 -0.365157 0.025467
-0.475934 0.162453 -0.262951
0.303284 -0.622504 0.034250
0.279089 0.819944 0.254338
0.317149 0.912381 -0.059913
0.102251 0.384619 0.174579
0.495730 -0.234213 -0.219497
0.139785 -0.656676 0.031006
-0.600791 0.201876 -0.270170
0.700530 -0.439751 0.108908
-0.345053 -0.256191 0.246082
-0.398019 -0.550301 -0.355871
0.490608 0.140422 0.179820
0.589737 0.280483 0.203205
-0.879789 0.355709 -0.219875
-0.418708 0.121283 0.083890
-0.325701 0.427302 -0.210054
-0.112172 0.307911 0.151701
0.144895 -0.206228 0.201699
-0.525123 -0.403385 -0.343947
-0.130634 0.547042 -0.173104
0.594449 -0.337915 0.122746
0.298004 -0.244920 -0.241283
0.323851 0.396910 0.199036
-0.553923 0.231144 -0.261222
0.416325 0.645168 0.232754
0.467493 -0.080507 -0.200630
-0.563093 -0.374581 -0.001113
-0.086747 -0.701147 0.001487
-0.214851 -0.585407 -0.342063
-0.030035 -0.634871 0.016684
0.456913 -0.540357 -0.060713
-0.414255 -0.336596 -0.327280
0.218789 0.206384 0.161292
0.230541 -0.229479 0.160917
-0.344805 -0.301870 0.239641
0.315472 0.194247 0.377568
0.368834 -0.587217 -0.008820
0.537179 -0.452377 0.100670
-0.072334 0.447623 0.373682
-0.576760 -0.171614 0.026220
-0.357773 0.211662 0.102932
-0.258768 -0.566331 0.211020
0.378660 0.380496 0.257636
-0.270253 -0.786559 -0.376220
0.629479 -0.376652 -0.225951
-0.692942 0.023590 0.041945
-0.726947 0.416511 -0.088440
-0.513054 -0.447093 -0.006249
-0.091560 0.525146 0.373428
-0.105423 -0.510259 -0.320206
0.767992 0.024158 -0.155006
0.359303 0.704751 0.246253
0.085286 -0.059342 0.318068
-0.005743 -0.545435 0.031836
0.451945 0.498717 -0.120222
0.446633 0.259232 0.207128
0.198358 0.286151 0.346792
-0.231736 -0.605008 0.208316
0.527585 0.390627 0.219033
0.304705 0.027334 0.144751
-0.290532 -0.190078 0.052950
-0.765850 0.098711 -0.291497
-0.250149 -0.041901 -0.268736
0.174447 0.441205 0.190070
0.265464 -0.627932 -0.102103
-0.521518 -0.455589 -0.221804
0.671005 -0.426614 -0.185114
-0.470487 0.158197 0.083808
0.389964 0.160451 -0.174465
0.051808 -0.354558 0.064759
-0.332575 0.592456 0.044899
-0.062243 0.198337 -0.215461
-0.425132 0.274684 -0.241854
0.159951 0.099294 0.140099
0.555754 -0.233136 0.341694
0.097260 -0.607340 0.033632
-0.325918 -0.346514 -0.319628
0.382257 -0.316464 -0.242774
0.502856 0.152114 -0.164072
0.126459 -0.667574 0.028097
0.559752 -0.264227 0.182692
-0.578072 0.290781 0.091549
-0.326327 0.594558 0.054415
0.143306 -0.676787 -0.204341
0.705071 0.080378 -0.153498
-0.107374 -0.100966 0.292424
-0.282258 -0.789507 -0.377869
0.438476 -0.324068 0.276048
-0.229610 0.073078 0.096451
-0.501452 -0.082574 -0.300257
-0.239354 -0.163806 0.061916
0.117375 0.162759 -0.202084
-0.459208 0.549505 -0.144143
0.868004 -0.353589 0.041976
0.196549 -0.510287 -0.289252
-0.004708 0.403707 -0.180487
0.290783 0.723577 0.241894
0.100804 0.100242 0.134170
-0.063506 0.321923 0.148709
-0.599824 0.485468 -0.177639
-0.272507 -0.790827 -0.030253
0.537722 0.431050 -0.121008
0.026247 0.513908 0.393173
-0.012860 -0.192038 -0.265665
-0.501793 -0.209121 -0.318207
0.168290 -0.473742 -0.286976
-0.194536 -0.851328 -0.061456
-0.323748 -0.833944 -0.041610
0.021606 -0.744482 -0.100830
0.544456 0.343277 0.214059
-0.121118 -0.491601 -0.319173
-0.664945 0.322916 -0.259611
-0.259534 -0.013459 -0.265671
0.791725 -0.388445 0.025081
0.510028 -0.309272 -0.228657
-0.208230 -0.733473 -0.015543
-0.273421 0.272844 -0.226562
-0.821561 0.175990 -0.172297
0.209225 0.444845 0.330045
-0.304148 0.467917 0.144709
-0.171973 0.658627 0.158364
-0.524948 0.397717 0.112134
0.732780 -0.035331 0.179765
0.450593 -0.384944 0.101340
0.801047 -0.364145 -0.189204
-0.391356 -0.617089 -0.364643
-0.512473 0.113822 -0.273582
-0.700836 0.442043 -0.229494
-0.587843 0.364947 -0.245756
-0.069807 0.006273 0.185426
-0.231936 0.292734 -0.219493
0.014838 0.144825 0.131669
0.427484 0.179275 -0.167954
-0.672113 0.079207 -0.294848
0.367795 -0.495510 -0.269605
-0.747788 0.375697 -0.260631
-0.412034 -0.744062 -0.080284
0.664115 0.047446 -0.162359
-0.134077 -0.686826 0.206744
-0.640920 0.014175 0.045946
-0.238467 -0.242928 0.050805
-0.100201 0.458353 0.372344
-0.133579 -0.432647 -0.312104
0.450842 -0.551805 0.077742
-0.312033 0.277127 0.324971
0.284200 0.072458 0.149038
0.276746 0.678639 -0.112710
-0.331761 0.419896 0.271557
-0.034365 0.335271 0.257390
-0.497206 0.529558 -0.124670
-0.432772 0.160702 -0.258774
0.316202 0.131116 0.167250
0.352380 0.135086 0.310874
0.202064 0.600193 0.423413
-0.094080 -0.223653 -0.278467
-0.283195 -0.076788 0.069741
0.428741 0.593396 0.237607
0.546344 -0.442125 0.103060
-0.736876 0.311641 0.078222
-0.352568 0.129651 0.091855
0.427518 0.733635 -0.089468
0.268360 0.474239 0.412377
0.536497 0.394023 -0.126375
-0.219225 0.534016 0.162772
-0.544242 -0.461879 -0.011540
-0.041738 0.471947 0.380262
-0.038129 -0.742695 -0.346214
-0.606473 0.028949 -0.295234
-0.214933 -0.576861 0.214023
-0.238324 0.142238 0.105349
-0.232196 0.462365 0.326279
-0.336110 0.574174 0.156475
-0.483125 -0.290472 0.227074
-0.096543 -0.074534 0.130584
-0.574305 -0.259148 -0.332724
-0.805306 0.184644 -0.292910
0.713896 -0.358475 -0.214723
-0.583306 0.069874 0.059738
0.201188 -0.608941 -0.302744
-0.020129 -0.181677 -0.264943
-0.149478 0.398915 -0.196007
-0.894652 0.309425 -0.104067
-0.117353 -0.593595 0.017815
-0.705375 -0.007405 0.036283
0.853286 -0.339292 -0.188247
0.045814 0.786355 -0.097968
0.044108 -0.724538 -0.200149
-0.495562 0.523259 -0.048189
0.058243 0.611063 0.218048
0.142744 0.710839 -0.121889
-0.097844 0.508980 -0.175131
0.441165 0.311573 -0.147821
0.019793 0.623731 0.199977
0.430596 0.650945 0.131872
-0.094556 0.314370 0.172774
0.832089 -0.377563 0.115663
0.354958 0.587665 -0.117572
0.041856 0.375843 0.212265
0.391436 -0.310928 0.296371
0.859765 -0.259528 -0.185761
0.694038 0.037887 -0.160644
0.898868 -0.250818 -0.180519
-0.200298 0.001532 0.089327
0.695741 -0.318630 -0.210943
0.574743 -0.076184 -0.189024
0.367947 0.728586 0.250514
-0.300651 -0.898945 -0.094361
-0.304192 0.089642 -0.255653
0.518848 0.107645 0.178075
-0.196769 0.267598 0.150847
0.145535 0.422607 0.241826
-0.178997 0.667707 0.024123
0.329909 -0.476607 -0.270813
-0.053558 0.076743 -0.231785
0.037572 0.326819 0.159765
-0.438343 0.309503 0.108524
-0.447343 0.294787 -0.241285
0.637527 -0.457953 -0.019346
-0.003768 -0.400491 0.052559
0.748689 -0.324601 -0.206360
0.025316 -0.439436 -0.296776
0.475297 -0.494955 0.088298
0.790443 -0.195592 -0.183816
-0.092570 -0.280312 0.060469
0.192475 0.719795 0.231280
0.429077 -0.483582 0.085169
-0.272919 0.479144 -0.197304
-0.161063 0.285928 0.137015
0.856694 -0.191359 -0.088680
-0.567385 0.052496 -0.287893
-0.267173 -0.050933 0.075044
0.598118 -0.214912 0.140536
0.068024 0.004512 -0.229547
-0.013851 -0.086877 -0.250878
0.126564 -0.098206 0.316798
-0.329191 -0.326828 -0.317177
0.221914 0.760053 0.239997
0.548616 0.032213 0.170447
-0.194029 0.122203 0.107054
-0.684585 0.277763 0.078786
0.035320 0.210432 0.143057
-0.103536 -0.802985 -0.114293
-0.573175 -0.245327 0.016152
0.480144 -0.064770 -0.197106
0.547084 -0.120899 -0.198189
-0.856912 0.349002 -0.029543
0.261457 0.845547 0.256155
-0.422652 0.073980 -0.270014
-0.667530 0.449731 -0.140812
-0.385963 -0.770479 -0.162878
0.262882 0.378283 -0.156654
-0.282631 0.230907 0.321442
0.189709 0.019463 -0.214955
0.792855 -0.128616 0.118915
0.247353 0.067256 -0.202279
0.469441 0.098022 -0.175156
-0.693985 -0.048921 0.031573
0.621181 -0.428877 -0.234195
-0.079885 -0.051957 0.302181
-0.270489 -0.484934 -0.333542
0.050091 -0.712048 0.013972
0.330607 -0.145386 0.331036
0.298098 0.116189 0.156654
0.048490 0.788536 -0.107728
-0.033290 0.733421 0.065752
-0.012652 0.321571 0.153873
0.829428 -0.258500 -0.188725
0.232572 0.843592 0.246768
0.355801 -0.237782 0.320538
-0.205181 0.476900 0.308612
0.266891 0.789547 -0.098019
0.624765 0.056715 -0.165080
0.343710 0.341081 0.401250
0.281992 0.736826 -0.103935
-0.454500 0.341636 -0.235386
-0.104003 -0.087503 0.184173
0.222293 -0.508011 0.060512
0.346237 0.135222 0.277743
0.393638 0.578752 0.231935
-0.022798 0.570446 0.238809
-0.033575 -0.631443 -0.329997
0.456302 0.517393 0.229672
0.845026 -0.360921 0.002690
-0.186070 -0.513787 -0.328973
-0.395390 -0.568597 -0.011388
0.375478 -0.588734 0.041800
0.071379 0.405967 0.382518
0.021634 0.581670 0.346672
-0.014337 0.282354 0.148148
-0.515066 0.526750 -0.186418
0.174005 0.607736 0.421604
0.373196 0.037457 -0.193597
0.295214 -0.526610 -0.281449
0.164073 -0.465799 -0.286283
0.462586 -0.206437 -0.218962
-0.365593 -0.282813 -0.314677
-0.186369 -0.333017 -0.303411
0.275325 -0.528654 0.063026
0.160330 0.302640 -0.177877
-0.470262 0.453851 -0.221115
-0.335277 0.174015 -0.246895
-0.076913 -0.040094 0.304165
-0.769902 0.018964 0.033401
0.050413 0.053247 -0.224452
-0.207514 -0.156851 0.066164
-0.143975 0.149422 -0.230764
-0.272668 0.457964 -0.200276
-0.036225 -0.140034 0.192362
0.107791 -0.456290 -0.290707
-0.333828 0.181605 -0.245671
0.802607 -0.393358 0.134225
-0.773646 0.196348 -0.288673
-0.400950 0.454735 0.132918
-0.024917 -0.358846 0.056287
-0.311878 0.599889 0.071338
-0.644756 0.463485 -0.171913
0.517872 -0.384626 -0.238521
0.104734 0.616554 0.398411
0.206475 0.636087 -0.125938
0.026388 0.359623 0.163262
-0.901877 0.271331 0.055600
-0.368452 -0.665341 -0.022323
-0.069354 0.321516 0.356134
-0.575708 -0.353492 0.000579
-0.058392 -0.514255 -0.315950
0.328097 -0.264529 0.313911
0.078778 -0.342458 -0.277566
-0.070614 -0.221402 0.071060
0.120025 -0.702580 -0.045883
0.326037 0.911035 0.000429
0.086215 -0.697197 -0.278277
-0.240216 0.189907 -0.234899
-0.682217 0.378242 -0.253549
-0.858789 0.263716 0.058939
-0.003968 0.295081 0.151013
-0.562755 0.027883 -0.290903
-0.252178 0.430895 0.352877
0.238663 0.633727 -0.122973
-0.246825 -0.691058 0.194587
0.432253 -0.509645 -0.264998
0.517249 -0.498572 -0.200816
-0.402813 -0.062612 -0.287318
-0.052116 -0.772533 -0.178000
0.294110 -0.608285 -0.166554
0.432458 0.194526 0.389600
-0.013019 -0.668505 0.013667
0.483698 -0.171255 -0.211817
-0.450935 -0.395364 0.098963
-0.124692 -0.242438 0.062538
0.404850 -0.378027 -0.249174
0.409075 -0.563136 -0.061380
-0.459200 0.261849 0.099639
0.633985 -0.324864 0.128646
0.057974 -0.709020 -0.296216
-0.456033 0.524058 0.137086
0.116069 -0.179391 0.108680
-0.251017 -0.041293 -0.268738
0.488955 0.086758 -0.174750
-0.249980 0.204229 -0.233873
-0.438057 -0.493355 -0.351913
0.084363 -0.476007 0.050903
-0.072120 0.222320 -0.213078
0.469925 0.570517 0.118895
-0.571226 0.482002 0.007203
-0.256182 -0.404223 0.234236
-0.174619 -0.814118 -0.360507
0.325732 -0.582684 0.060545
-0.043731 0.719776 0.159239
0.004130 0.612192 -0.150065
0.618669 0.011449 -0.172114
0.175684 -0.168894 0.311826
0.358278 -0.287529 -0.241136
-0.107929 -0.673917 0.182643
-0.481637 -0.333837 0.013006
0.302512 -0.025561 0.137038
0.286808 -0.616085 -0.119983
-0.417154 -0.240526 -0.313977
0.346504 0.600312 -0.116648
0.508561 -0.528163 0.073879
-0.409055 -0.584934 -0.361905
0.331298 -0.261575 0.106576
0.362435 -0.105836 -0.214987
0.388143 0.598785 -0.112596
-0.403374 -0.480138 0.048915
0.393060 -0.496307 -0.267128
0.108384 -0.186853 -0.252501
0.421405 -0.118625 0.344133
0.119316 0.568276 0.410411
-0.139135 -0.468030 0.029120
0.454931 0.005265 0.157028
0.244384 0.309645 0.330402
-0.331713 -0.769237 -0.033266
-0.240928 0.240071 0.220410
-0.154117 -0.598265 -0.337657
-0.224599 0.250520 0.191775
0.240438 0.220137 0.373541
-0.333682 0.519106 0.148928
-0.057958 -0.697838 0.004907
-0.121334 -0.680465 0.111740
-0.272215 0.215835 -0.234509
-0.695124 0.395553 -0.252421
-0.680842 0.442838 -0.135012
-0.144127 -0.067889 -0.261546
-0.557265 0.500050 -0.115683
0.423017 0.367982 0.205107
-0.364271 -0.385085 -0.329021
0.172848 0.130421 0.145828
-0.098742 -0.084605 0.101445
0.575725 -0.485517 -0.040326
0.010995 -0.173031 0.294357
-0.123497 -0.453064 -0.313961
0.462748 0.417909 0.216249
0.219865 0.132564 -0.195851
-0.621570 0.479674 -0.227173
-0.150428 0.685435 -0.019999
-0.321836 -0.676338 0.103036
0.189088 -0.299643 -0.260196
-0.063236 -0.318132 0.058122
-0.008385 0.568474 -0.157538
0.224143 -0.318258 0.087566
0.748193 -0.101292 0.172006
-0.733540 -0.084994 0.021433
0.381745 0.652228 -0.105685
-0.343238 -0.461563 0.217193
0.542638 0.314336 -0.137028
0.243456 0.872364 -0.007755
0.094665 0.628735 0.214998
-0.533068 0.030579 0.059325
0.258448 -0.243730 0.309716
0.548390 -0.184633 -0.207079
0.411082 0.182903 0.385763
-0.087349 0.301829 0.345319
0.215609 -0.231053 0.307119
-0.085834 -0.776312 -0.311008
0.404504 -0.566467 -0.048979
-0.438411 -0.438026 0.141730
0.259409 0.371478 0.188829
-0.240566 0.467246 0.230441
0.181606 -0.216932 -0.249253
-0.011443 0.572630 0.273764
-0.442705 -0.256166 0.236075
0.220847 -0.648513 -0.109899
-0.218758 0.176018 0.112137
0.589260 -0.239241 0.136183
0.071329 -0.040851 0.319255
-0.421119 0.543449 0.117567
-0.585095 0.108229 -0.281819
0.239507 0.464713 0.271651
0.092676 -0.234408 -0.260844
0.407309 -0.572516 0.030786
0.384056 -0.421994 0.089273
-0.149864 -0.527479 0.029554
0.125354 0.804550 0.115588
0.246685 0.458995 0.370383
-0.078299 0.301080 -0.202561
-0.280580 -0.094783 -0.279342
0.017366 0.030770 0.323863
-0.276836 0.609112 0.152397
-0.731532 -0.037033 -0.122464
0.484204 0.335398 0.206767
-0.890184 0.328893 0.016052
0.587453 -0.379460 -0.230656
-0.507392 0.156818 -0.266974
0.392174 -0.552267 -0.265840
-0.330031 0.577175 -0.189280
0.025684 -0.730171 -0.234315
0.187311 -0.326202 -0.264138
-0.275424 0.484285 0.149971
-0.651924 0.153172 0.064496
-0.571204 0.261194 -0.258739
-0.748750 0.077110 -0.303002
-0.491365 0.525399 -0.049657
0.822136 -0.369777 -0.019703
0.435575 -0.334363 -0.239842
0.279172 -0.554010 -0.286972
-0.356829 -0.441865 -0.336296
0.250791 -0.645095 0.007554
-0.483772 -0.268338 -0.324743
-0.541620 -0.143439 -0.312991
0.083959 0.555740 0.405011
-0.026275 0.292066 -0.198504
-0.189674 0.486552 0.284343
0.896546 -0.340169 0.083343
-0.303090 0.179292 -0.242848
-0.458813 -0.191351 -0.311285
-0.145745 0.515591 0.197276
-0.208330 -0.718631 0.194629
0.081823 0.491178 0.395652
-0.682313 -0.042476 -0.313121
0.193579 0.831343 0.178008
-0.100772 -0.070195 0.245045
-0.063411 -0.780619 -0.148931
0.432830 0.022579 0.157213
-0.439203 0.496234 -0.211931
-0.208657 0.160099 -0.235884
0.677469 0.036139 -0.162591
0.066436 0.600965 0.369295
0.067060 0.793046 -0.060695
-0.399773 -0.664891 -0.371095
0.299838 0.865610 0.262930
0.050701 0.777261 0.025397
-0.281238 -0.507358 0.217066
-0.318741 -0.485586 -0.338581
0.239853 0.173920 -0.187947
0.309549 0.336570 0.375620
0.189218 0.131708 0.147689
0.885983 -0.244835 -0.116003
-0.086196 0.601319 0.185939
-0.130109 -0.782162 -0.361231
-0.674120 0.370790 0.093029
0.097394 -0.008953 0.326443
-0.321375 -0.739605 -0.374814
-0.366812 0.183524 0.098022
0.248500 0.427755 0.195678
-0.705158 0.435988 -0.186402
-0.035410 0.693115 -0.142662
-0.507496 0.039315 0.063183
0.589640 -0.452801 0.105988
-0.341907 0.415160 0.270383
-0.612073 0.431508 0.107986
0.048266 0.177663 0.139745
0.031961 -0.172799 0.088457
-0.519833 0.339647 -0.242366
-0.123538 -0.178929 -0.275155
-0.046640 -0.664299 -0.335987
0.383361 0.307050 0.400497
0.263249 0.471472 0.321062
0.519931 -0.020071 0.160104
0.289792 -0.517194 -0.280671
-0.143885 -0.812380 -0.220845
-0.270981 -0.483463 -0.333385
-0.076548 0.504636 -0.173563
0.673670 -0.244507 0.144091
0.213625 -0.650032 -0.130725
-0.289662 -0.473834 -0.333937
0.155384 0.281414 0.165414
-0.700467 0.073911 -0.298505
0.303452 -0.346267 -0.255072
-0.203008 -0.726116 0.183589
0.163074 0.599069 -0.135629
0.363178 0.152786 0.175444
0.266874 -0.569474 -0.290422
-0.402947 -0.323066 0.230679
0.503697 0.524299 0.044908
-0.142168 0.140010 0.114891
0.297293 -0.012236 -0.208413
-0.744271 0.343360 -0.264849
-0.603400 -0.355024 -0.010796
0.017323 -0.560961 0.032003
0.749478 -0.264396 -0.197756
-0.110330 -0.462677 0.032831
0.523624 0.404226 -0.126251
0.695756 -0.266797 0.143200
-0.048341 -0.725600 -0.344841
0.254604 -0.645335 0.029807
-0.057277 0.060755 0.112374
-0.911455 0.313827 0.060634
0.034981 -0.744510 -0.031579
0.339173 -0.337656 -0.250191
0.316189 0.134820 0.369228
0.246467 0.861076 0.129631
-0.157718 -0.792541 -0.018728
-0.807857 0.362702 -0.268629
-0.162154 -0.403245 0.035932
0.389892 -0.466773 0.083532
-0.104745 0.340807 0.355237
0.296848 0.492731 0.264734
-0.026764 0.048712 0.321879
0.564552 0.399700 -0.122696
0.385314 -0.275336 -0.236638
-0.092366 -0.409773 0.042162
-0.413059 -0.194463 -0.307035
0.226331 0.139742 0.152631
-0.255133 0.236770 0.325091
-0.336242 -0.670083 -0.366496
0.458431 -0.308226 0.147176
0.747131 -0.252068 -0.196251
0.016216 0.557535 0.398321
0.432599 0.176257 0.279892
0.856280 -0.228047 0.014711
-0.169619 0.248010 0.127367
0.313582 -0.040735 -0.210778
-0.105918 -0.104457 0.132021
0.744868 -0.039301 0.159010
-0.568257 -0.153898 -0.317203
0.265173 -0.262306 0.307775
-0.095807 0.580299 -0.164826
-0.494374 0.253231 0.094813
0.182645 -0.028160 -0.222421
0.530912 -0.148937 0.346635
0.180380 -0.362408 -0.269974
0.358880 0.486021 0.215243
0.079431 0.780620 0.137230
0.306137 0.109574 -0.190262
0.359791 0.360840 0.372580
0.262843 -0.205669 -0.239330
0.349663 -0.046349 -0.207874
0.195089 -0.670122 -0.009370
-0.061498 -0.326593 -0.289701
-0.090728 0.707129 0.053525
-0.462314 -0.278207 -0.323941
-0.020002 0.694289 -0.140917
0.376025 0.778663 -0.088372
0.100245 -0.708372 -0.085314
0.107859 -0.475562 -0.293429
0.433946 -0.400652 -0.249394
-0.006760 -0.698401 0.010076
-0.721467 0.096374 0.049326
-0.210813 0.485257 0.189367
0.349298 -0.022004 -0.204465
0.455412 -0.436094 -0.252211
0.541176 -0.317791 0.163153
0.308751 0.402950 0.198344
-0.250099 0.163561 0.107161
-0.666819 0.357365 -0.254926
0.263132 0.331844 0.187372
-0.069459 -0.674827 0.006986
-0.337743 0.305136 0.118219
-0.316536 -0.101385 -0.283963
-0.461790 -0.294777 0.228652
0.459831 0.266823 0.194560
0.123327 -0.122716 0.312996
0.458425 0.236671 0.198964
0.373265 0.433533 0.209287
0.594351 -0.245419 0.135831
-0.002620 0.620003 0.197152
-0.441444 0.352818 0.114338
-0.285449 0.591160 0.164073
0.068111 -0.539134 -0.306503
-0.337559 -0.202147 0.252422
0.133871 -0.319443 -0.268659
0.231247 0.852558 0.143136
-0.561443 -0.200862 -0.323153
0.121953 0.311938 0.166309
-0.243828 0.242706 0.177017
-0.063280 -0.770424 -0.258322
0.044282 -0.612816 0.027425
0.557381 0.366215 -0.128171
-0.641233 -0.131668 -0.321537
0.553197 0.081225 -0.168947
0.830221 -0.348572 -0.201396
0.381544 0.491321 0.218317
0.479797 -0.272537 -0.226556
0.203865 -0.421236 0.070908
-0.476375 -0.002495 -0.286349
0.264907 0.426321 -0.149646
0.068490 0.389853 0.171858
-0.302612 0.439634 0.208721
0.246616 -0.273149 -0.250547
0.052725 0.616729 0.202362
-0.390368 -0.552968 -0.355464
-0.410445 -0.159776 -0.301857
-0.170707 0.683711 -0.105922
0.136079 0.506374 -0.151519
0.425174 0.654794 -0.100870
-0.614333 0.383738 0.100992
-0.484511 0.202285 -0.258191
0.577111 -0.489492 0.009734
0.129362 0.577239 0.412710
-0.150669 -0.695838 0.126499
0.479521 -0.264485 0.329441
-0.365869 -0.335180 -0.322119
-0.457614 -0.259602 -0.320825
0.844348 -0.156489 -0.172754
0.467863 0.414588 -0.130500
-0.768024 0.247206 -0.280897
0.299882 0.133665 0.367392
-0.256440 -0.185327 -0.289686
0.261120 0.316405 0.343690
0.796641 -0.366658 -0.184788
0.271836 -0.089991 -0.222031
0.318259 -0.254021 -0.240495
-0.466347 -0.110626 0.254256
-0.588612 -0.006324 0.048406
0.139592 -0.200551 0.180435
0.530221 0.199336 0.192222
0.367198 -0.023384 0.143978
-0.219042 0.639272 0.124692
-0.368401 0.368978 0.124114
0.414488 -0.028439 0.148110
0.299382 -0.106342 -0.221522
-0.342534 0.594236 -0.025657
-0.172224 0.678473 -0.057187
0.287529 -0.423784 -0.267679
-0.174970 0.401603 -0.198240
-0.129474 -0.633540 0.199885
0.443193 -0.554107 0.017013
-0.534555 -0.198437 0.234832
-0.338957 -0.653559 -0.017631
0.545077 -0.463929 0.099844
-0.064520 0.307598 -0.200226
0.577916 0.277573 -0.138616
0.613942 -0.460210 0.107430
0.188048 -0.460525 -0.283079
0.078294 -0.454315 0.053352
-0.576914 -0.152939 0.182350
-0.361105 0.585151 -0.023294
-0.610573 -0.096373 -0.313397
-0.321869 0.593862 0.084906
-0.249678 -0.290678 -0.303907
-0.296891 -0.394292 -0.323417
0.266548 0.097588 0.150786
-0.094672 -0.635446 0.009976
0.340768 -0.582393 -0.205579
-0.380013 -0.113396 -0.292171
-0.351609 0.598022 -0.113305
-0.008869 -0.751298 -0.184333
0.630900 -0.125241 -0.190212
-0.527227 0.235325 -0.257893
-0.417511 -0.099491 -0.294046
-0.112311 0.052923 0.105623
-0.169710 0.153065 0.113916
0.251522 -0.639540 -0.048641
0.349308 -0.590234 -0.076906
0.156269 -0.099915 0.319601
-0.675320 0.209013 -0.276800
0.292335 0.662950 0.233470
0.185353 0.547570 0.414249
-0.777676 0.131461 0.048531
0.317954 0.517080 0.264168
0.237790 0.135644 -0.193578
-0.168856 -0.791397 -0.019708
-0.255165 0.603249 -0.177914
0.822496 -0.227683 -0.185073
0.762616 -0.069931 0.137572
0.636664 -0.384631 -0.226344
-0.096074 -0.494912 0.029728
0.098663 0.504770 0.399303
-0.286875 -0.805645 -0.380627
-0.094907 0.538137 0.215919
0.587566 -0.299059 -0.219262
-0.049815 0.067000 0.228611
-0.524911 0.230790 0.088506
-0.560922 0.079271 0.063363
0.081238 0.143447 -0.208522
0.720106 -0.081662 -0.174897
0.290212 0.646018 -0.115948
-0.099560 -0.078555 0.161056
0.246829 -0.351696 -0.261646
-0.344960 0.203249 0.103055
0.299496 -0.284376 0.100087
-0.313647 -0.196984 -0.297201
-0.444800 -0.429930 0.157513
-0.084454 0.700304 0.159548
-0.102861 -0.085418 0.176696
-0.383327 0.198195 -0.248397
-0.057172 -0.765702 -0.277807
0.256071 -0.187036 0.317498
0.615144 -0.460382 -0.108491
-0.260348 0.460081 0.205824
-0.487004 -0.107688 0.245637
-0.210708 0.345114 0.344984
0.119025 -0.193827 0.183821
-0.157948 0.680704 -0.156982
-0.693855 0.297677 0.080655
0.205981 -0.648712 -0.184375
0.000277 0.471802 0.384549
0.428623 0.475524 -0.125896
-0.121415 -0.236901 0.063658
-0.535015 0.492175 0.084030
0.244966 0.649511 -0.120092
-0.399420 -0.089901 0.264051
0.663244 -0.329116 -0.215759
-0.169816 0.336595 -0.206915
-0.117357 -0.481826 -0.317404
0.167878 0.617665 -0.132504
0.010738 0.708899 -0.135697
0.203234 -0.526688 -0.290889
-0.075928 0.463297 -0.179352
0.221991 -0.648448 -0.104694
0.255138 -0.272888 -0.249637
-0.115857 0.656834 -0.156046
0.443549 -0.362594 0.103782
-0.219044 0.212599 -0.229516
-0.048943 0.070098 0.233727
0.008056 0.681222 0.206913
0.170338 0.815336 0.231029
0.099150 0.583938 0.410561
-0.387511 -0.033573 0.065165
-0.613481 0.443907 -0.237206
0.645797 -0.292239 0.134476
0.343924 0.265871 0.390624
-0.669282 0.113853 0.057150
-0.324068 -0.678325 0.188471
0.485158 0.368325 0.211526
0.245026 -0.526007 -0.286508
0.547388 -0.222564 0.342333
-0.580022 0.479668 -0.228713
0.101106 0.626262 0.274896
0.276811 0.029718 -0.204574
-0.279612 -0.634119 -0.355599
-0.266799 0.583155 0.164852
-0.603955 0.179009 -0.273732
0.287823 0.880432 0.133841
0.044747 0.602613 0.239705
-0.345715 0.582879 0.080568
-0.449514 0.063823 -0.274206
-0.423672 0.509580 0.138354
0.467912 0.028294 -0.185184
-0.222191 0.304480 -0.216831
0.632622 0.250653 -0.136818
-0.067882 0.406170 0.368270
-0.102526 -0.121393 0.290029
0.216874 0.468369 -0.148617
-0.773489 0.325628 0.076449
0.191352 -0.195043 0.309730
-0.019969 0.218394 -0.208287
0.626484 0.191475 0.200977
-0.023584 0.656871 -0.146581
0.580763 0.265286 -0.140063
-0.241813 -0.239077 -0.295796
0.450192 0.167273 -0.167325
-0.243504 0.025154 -0.258561
0.239180 0.041143 0.139989
-0.648626 -0.232420 0.010244
0.083656 -0.170323 0.302189
0.613447 0.323864 -0.128420
0.657136 -0.164069 0.153784
-0.492565 0.248294 0.094300
-0.501062 -0.176961 -0.313579
0.465304 -0.070627 0.147347
0.484248 -0.530159 -0.029909
0.354387 -0.083031 -0.212583
-0.453517 0.280197 0.102819
0.524570 -0.344968 0.294607
0.014711 -0.227098 -0.267802
-0.083121 0.602134 0.186369
-0.378299 0.571210 0.038580
0.280169 -0.213911 0.316164
0.614601 0.050856 0.179851
-0.069601 0.179071 -0.218942
0.181828 -0.498172 -0.289047
0.120043 0.382979 0.176170
0.269121 0.182530 -0.183728
-0.114985 0.575853 0.179382
0.921431 -0.305453 -0.160365
0.442494 0.203985 0.383758
-0.191792 0.425740 -0.196547
0.660941 -0.356613 0.126915
-0.214270 -0.114770 -0.275374
-0.270562 0.625651 0.006180
0.013273 -0.648854 0.019144
0.078417 0.468399 -0.162807
0.282941 0.382503 0.192803
0.074705 -0.575976 -0.311043
-0.041636 0.556531 0.291939
0.223108 0.074932 0.143125
-0.600320 -0.245410 0.013357
-0.568263 -0.138328 0.031804
-0.431262 -0.447618 0.125541
-0.041826 -0.674530 0.009861
-0.211049 0.600337 -0.173803
0.168640 -0.478456 -0.287607
-0.158409 0.510953 0.182073
0.698487 -0.309567 0.137424
-0.023623 0.095449 -0.226068
0.220696 0.457045 0.257464
-0.690812 -0.051913 -0.315328
-0.074453 0.718517 0.014472
-0.092911 -0.782767 -0.277794
0.263106 0.129967 0.155017
0.371355 0.735488 0.251840
0.232322 0.532912 0.416989
-0.676858 0.429006 0.034854
-0.172417 0.027430 0.095852
0.001300 0.725487 -0.134316
-0.280744 -0.377004 0.235571
-0.698922 0.421041 0.007113
-0.148899 -0.111467 0.078599
0.588123 -0.448589 0.106428
0.178767 0.672911 -0.123566
-0.702957 0.309993 0.081466
-0.572555 0.492786 -0.116073
-0.151141 -0.116793 0.077615
-0.481093 -0.495512 -0.352736
0.054341 -0.226781 0.083109
-0.105535 -0.805097 -0.101794
-0.815417 0.111704 0.041864
0.225791 0.157091 -0.191772
-0.609557 0.210819 0.077001
-0.390982 -0.649282 -0.369162
-0.840812 0.365926 -0.129269
-0.630746 0.181124 -0.276179
0.392217 -0.555051 -0.235559
0.660329 -0.444056 -0.051841
-0.157441 0.507445 0.224937
-0.004813 0.148718 -0.216598
-0.876014 0.215104 0.044399
0.131583 -0.425507 0.062893
-0.248195 -0.352124 -0.312455
-0.693938 0.294881 -0.266552
0.462199 -0.249553 0.329779
0.523892 -0.427112 -0.243919
-0.502460 0.529973 -0.156230
0.336316 -0.599377 -0.045166
0.486212 -0.527276 -0.050902
-0.670057 0.445859 -0.112037
0.339985 -0.076972 0.324510
0.174485 -0.249037 0.092275
0.384703 -0.315608 0.104401
0.499841 0.129665 0.179244
0.415694 0.570014 0.232959
-0.105581 0.253339 0.134686
0.574282 -0.458877 0.103553
0.585931 -0.214557 -0.207467
-0.508494 0.525809 -0.142382
0.027206 0.534821 0.396232
0.152301 0.233483 -0.188490
0.048799 -0.645670 -0.323566
0.270368 -0.295931 0.095465
0.212889 -0.302115 -0.258106
-0.326354 -0.822636 -0.374404
-0.389661 -0.684810 -0.374057
-0.462407 -0.347786 0.221084
-0.534039 0.489673 0.116070
0.585389 -0.458617 -0.242075
-0.669989 -0.024164 0.037538
0.492206 0.285901 -0.146223
-0.235122 -0.672784 -0.356511
0.615773 -0.448837 -0.229899
-0.475954 0.064302 0.069954
0.500621 -0.457447 -0.250599
0.836892 -0.304270 0.152363
-0.030353 -0.595592 -0.324591
0.146495 0.830506 -0.055657
-0.046572 0.065139 0.151370
-0.346204 0.049706 0.081189
-0.235967 0.058646 -0.253047
0.022953 -0.725895 0.009230
-0.067074 -0.105154 -0.258922
-0.560168 -0.203934 0.222897
0.019813 0.575468 0.401228
-0.553847 0.258498 0.089462
-0.022820 0.251182 0.142865
0.546013 -0.494221 -0.099521
0.554205 -0.012849 0.164641
0.266984 -0.537903 0.060862
0.626011 -0.116875 0.157275
0.000101 0.479086 -0.169323
-0.272374 0.626556 -0.012932
0.138754 -0.139080 -0.242624
0.349432 0.371887 0.199920
-0.662791 0.395425 0.097679
-0.308128 -0.894695 -0.178789
0.121246 0.701868 0.221440
-0.261970 -0.463449 -0.329627
0.477058 -0.177582 0.341492
0.494814 -0.522335 -0.059907
-0.455626 0.409783 -0.225854
-0.115874 -0.111967 0.289995
-0.083227 -0.022956 0.097862
0.477675 0.414374 -0.129525
-0.063420 -0.635496 0.013173
-0.249794 -0.234560 -0.295975
-0.402209 0.478445 -0.210657
0.280516 0.740076 -0.103626
0.616476 -0.450907 -0.203927
0.595263 -0.162795 0.213127
-0.269039 0.260987 -0.227791
-0.651987 0.346692 -0.254916
0.103653 0.806477 -0.017070
-0.306215 -0.782755 -0.379369
0.558791 0.291313 -0.138631
-0.351663 -0.568266 -0.353662
0.199231 -0.496410 0.059790
0.582175 -0.464918 -0.229465
-0.348863 -0.621911 0.114278
-0.334535 -0.408713 -0.329318
-0.045913 -0.256746 -0.278214
0.515208 0.014058 0.164452
0.378566 0.777832 0.092690
-0.283738 0.444766 0.250600
-0.144176 0.430405 -0.191005
0.691901 0.179477 -0.127376
-0.215443 -0.365642 -0.311011
-0.100429 -0.659262 0.097660
-0.449406 -0.089220 0.240060
-0.446002 -0.659468 -0.110694
0.069136 0.637424 -0.139829
0.038610 -0.524267 -0.307423
-0.242128 -0.250090 0.049416
0.281297 -0.247498 -0.243360
0.473292 -0.533969 -0.045242
-0.047998 0.081279 -0.230572
0.405148 -0.400031 0.094545
-0.667410 0.361757 -0.254365
-0.356058 0.247837 -0.238574
-0.148826 0.698353 -0.151205
-0.211696 0.258692 0.170055
0.057908 0.370907 0.348296
0.381996 -0.021109 -0.200986
0.674683 -0.365272 -0.219705
-0.423362 -0.293189 0.232816
0.109860 -0.191846 0.093746
-0.317933 -0.597518 -0.354345
-0.451096 0.539029 0.010767
-0.001204 -0.452540 -0.301350
-0.103492 -0.055042 -0.255561
-0.321652 -0.629175 0.195677
0.299916 0.254494 0.384502
-0.741363 0.348951 -0.263759
0.213044 0.665596 0.427256
-0.413657 -0.713214 -0.155474
-0.317757 -0.355710 -0.320094
0.219631 -0.454337 -0.278965
-0.483840 -0.183144 0.242196
