-0.453561 0.357499 -0.153179
-0.190669 0.443275 0.387570
0.554348 0.295313 -0.247407
-0.424211 -0.567059 -0.024651
-0.029781 -0.507716 -0.296335
0.424027 0.449341 -0.217209
-0.764114 -0.458717 0.113761
-0.126993 -0.662426 -0.138884
-0.124497 0.263084 -0.193087
-0.001709 0.053771 -0.229460
0.090819 -0.400680 0.051979
-0.253023 -0.149998 0.319717
-0.521563 -0.035913 -0.195884
0.436869 -0.044824 0.273450
0.755208 0.359804 -0.256698
0.030325 -0.118882 0.299224
0.348974 0.609115 0.023207
0.170816 0.289309 0.230754
-0.537992 0.391992 -0.141672
0.015332 -0.146784 0.089791
-0.037849 -0.546248 0.252343
0.498386 0.050949 0.072708
0.627440 -0.089252 -0.301137
-0.301448 -0.171050 -0.231462
0.423570 0.069695 -0.264016
-0.115968 -0.160713 0.306625
-0.122976 0.397200 0.196831
-0.290609 0.666772 0.289890
0.778987 0.256309 0.073952
-0.161708 -0.635245 -0.298447
-0.409888 -0.331670 0.178124
-0.051821 -0.475229 -0.290433
0.216694 -0.792527 -0.057312
-0.362294 0.265875 -0.172322
0.053397 -0.218297 0.077698
0.100025 -0.411681 0.049831
-0.503160 -0.374949 0.169799
0.455600 -0.177138 0.255515
0.076978 -0.088450 0.091695
0.426023 -0.221911 0.252530
0.065987 -0.132799 0.087167
0.505317 0.405236 0.115830
-0.425809 -0.113517 0.202205
0.030235 0.701302 -0.152301
-0.622559 -0.149532 -0.201231
0.162112 -0.018119 -0.252399
0.347197 0.245207 -0.235800
-0.885548 -0.385169 -0.160799
-0.435914 -0.004081 -0.199311
-0.088149 0.045193 0.219978
0.809296 0.460447 -0.143290
-0.111352 0.040710 0.179716
-0.090502 -0.565207 0.242651
0.493246 0.106378 -0.265473
0.241219 -0.213475 0.062164
0.328041 -0.271840 0.254783
0.009055 -0.711663 -0.130983
-0.778880 -0.424107 -0.202533
0.054575 -0.493448 0.250922
0.306462 -0.178092 0.062504
-0.494997 -0.259340 -0.225735
0.436075 -0.486828 0.011700
0.520420 0.372038 0.110437
-0.402008 -0.569139 -0.087547
0.576864 0.311245 0.098088
-0.397707 0.473306 0.201778
-0.586297 -0.122032 0.144511
-0.021855 -0.624507 0.034036
-0.395275 -0.558016 -0.233311
0.269698 -0.814166 -0.027761
0.588356 0.521701 0.045503
-0.318186 0.063770 0.144414
-0.705581 -0.460315 -0.093935
-0.429037 -0.150570 0.334762
0.605330 -0.233419 -0.296205
0.146434 0.591660 0.169654
0.275024 0.633595 0.043526
-0.257279 0.103044 0.144030
0.112919 0.028126 -0.242469
-0.135061 -0.377677 0.074215
0.123198 0.311459 0.137073
-0.062824 0.622323 -0.154055
0.374037 -0.314327 0.245591
-0.170889 0.792196 0.047597
0.025333 -0.023513 0.311421
0.332167 0.465878 0.138183
0.208618 0.107057 -0.240947
-0.502101 -0.542801 0.013204
-0.302465 0.582410 -0.138401
-0.192355 -0.653303 0.013961
-0.082481 0.579810 0.395127
0.514171 -0.025407 0.061931
-0.204427 0.717072 -0.130203
0.135676 -0.381977 -0.295028
0.486915 -0.036674 0.175189
-0.321522 -0.285898 -0.243910
0.759972 0.475896 -0.120265
-0.332182 0.099329 0.150004
0.123046 -0.412092 0.047803
0.659758 0.440707 -0.238518
0.198230 0.493425 0.279801
0.547529 0.540036 0.004772
-0.057493 -0.632984 -0.309412
0.042140 -0.134584 -0.256468
-0.513880 -0.436772 0.099454
-0.391349 0.600236 0.216894
0.714181 0.038140 -0.177296
-0.124376 -0.536187 0.060030
-0.384737 -0.411815 0.091444
0.360056 0.585233 0.150516
-0.419612 0.457208 0.201672
0.215599 0.485884 0.294337
0.319815 0.392682 0.335503
-0.248459 0.033596 -0.210760
-0.271839 0.353703 -0.169252
0.728869 0.347739 0.089538
0.214411 0.256067 -0.223057
-0.300549 0.348617 0.178048
-0.474544 -0.536684 -0.158628
-0.335142 -0.300086 0.203627
-0.366367 0.025765 0.143862
-0.106384 0.628234 0.195878
-0.074290 -0.305640 0.077885
0.184211 0.643014 0.172746
0.156486 0.573558 -0.178906
-0.000961 0.346445 0.275012
0.373376 -0.354251 0.240721
0.341044 -0.004190 0.079416
-0.133441 -0.550048 0.244267
0.430276 -0.678702 -0.011479
0.446454 -0.026025 0.215888
-0.191406 0.167279 0.146299
0.479052 -0.556843 -0.000631
-0.196260 0.546009 0.400727
-0.158538 -0.525213 0.207478
-0.309417 -0.301520 0.287207
-0.511860 0.178474 -0.170263
-0.218983 0.341402 -0.175309
-0.555400 -0.388610 -0.236500
-0.271750 0.837223 -0.050134
0.321437 -0.460886 0.232023
-0.227710 -0.183061 0.313464
0.227062 0.223690 0.117324
-0.245981 0.820126 0.035117
-0.560660 -0.113713 0.143336
-0.110232 0.609644 0.212499
0.287722 0.071838 -0.252086
0.246648 -0.368308 0.107179
0.409034 0.330647 -0.230568
0.313810 -0.782526 -0.014289
0.166809 0.017869 -0.248362
0.263260 -0.430414 -0.311961
0.291339 0.092748 0.095646
0.275432 0.467571 0.261795
0.220448 -0.784482 -0.158448
0.244084 -0.502535 -0.319214
-0.247711 -0.253046 0.172092
-0.570894 -0.462554 -0.244294
0.505000 -0.584391 -0.135625
-0.226956 0.023342 0.131591
0.149473 -0.632804 0.049072
0.096688 -0.049434 -0.250645
-0.575168 0.075185 -0.177572
0.027053 -0.122646 0.178943
-0.237039 -0.518388 -0.279853
0.055817 -0.122451 0.261458
0.411490 -0.660149 -0.007576
0.138354 -0.397922 0.048237
0.606014 0.521901 -0.024505
-0.342718 -0.566060 -0.276661
0.114106 -0.752200 -0.097749
0.179254 -0.641503 -0.330795
0.770152 0.166774 -0.086620
0.116105 -0.736803 -0.271379
-0.152328 -0.668845 0.027662
0.048653 0.540552 0.346636
-0.094804 0.701030 -0.141597
0.231250 -0.702284 -0.342760
0.391602 -0.370743 -0.315619
-0.534617 -0.318439 0.199169
0.339629 -0.618297 -0.341703
-0.022842 -0.008500 0.317410
0.285341 0.145057 -0.242847
-0.366913 -0.046689 -0.210495
0.427295 -0.354912 -0.316731
0.191488 0.274176 -0.218854
0.020677 -0.703017 -0.268838
0.380576 -0.829680 -0.286619
0.410902 -0.303374 0.243776
-0.391038 0.101581 0.155336
-0.655095 0.276811 -0.142678
0.580952 -0.084911 0.249287
0.081597 -0.490600 -0.303787
-0.394995 -0.141520 -0.219785
-0.149942 0.093780 0.133669
-0.107005 -0.238047 -0.256427
0.145366 0.305458 -0.211033
-0.103502 -0.157549 0.305945
-0.260760 0.553471 -0.145553
-0.032124 0.408699 0.369688
-0.031121 -0.137668 0.302183
-0.233506 -0.612378 -0.269016
0.141487 -0.103781 -0.261199
-0.061102 -0.409025 0.271273
-0.413060 0.651244 -0.120410
-0.213155 -0.242078 0.205974
-0.293304 0.655670 0.419912
0.836900 0.442364 -0.253526
-0.144665 -0.538129 0.158933
-0.514609 -0.165553 -0.212478
-0.022468 -0.335002 0.069812
0.409516 -0.179844 -0.293602
-0.730686 -0.147700 0.153743
0.672200 -0.062837 -0.233234
0.200293 -0.657533 0.120326
-0.504391 0.448366 -0.137601
-0.841583 -0.412544 -0.086212
0.170366 0.258724 -0.218947
-0.043260 0.369361 0.190563
0.220954 -0.379707 -0.302071
-0.224518 0.733636 0.219029
-0.522238 0.342427 0.196322
0.316524 -0.829284 -0.044748
-0.504820 -0.521662 -0.204196
0.049237 0.013379 -0.238820
-0.577547 -0.193854 0.249028
-0.697588 0.109052 -0.023375
0.820450 0.256216 0.065061
-0.420628 -0.050607 0.139097
-0.079297 0.033357 0.317691
-0.375344 0.485954 0.209994
-0.026427 -0.418829 -0.285654
-0.715813 -0.388298 -0.222686
-0.569625 -0.236084 -0.216457
-0.083664 0.093932 0.127996
-0.395251 0.693626 0.228753
0.691751 0.265277 -0.262913
0.431742 -0.655251 -0.354173
0.682006 0.132002 0.066941
0.572373 -0.227256 0.032025
0.235902 -0.408710 -0.306933
-0.151290 0.131556 0.138446
-0.390562 0.563745 0.212324
0.517154 0.024890 -0.277582
0.689242 0.118968 -0.280751
-0.525117 -0.110703 0.140655
0.378788 -0.185775 -0.291695
-0.554546 0.214354 -0.162170
-0.419816 0.469757 0.203238
-0.602936 -0.486807 -0.202836
-0.127317 0.792241 -0.120315
-0.495476 0.158765 0.171361
0.625134 -0.139606 -0.307153
-0.032542 -0.189018 -0.256772
0.743112 0.106618 0.058561
0.356924 -0.698894 -0.353134
-0.698666 -0.072624 -0.185205
-0.087381 -0.510757 0.260976
0.507066 -0.049785 0.239062
0.241361 -0.296461 -0.293551
-0.362284 -0.582317 -0.098155
-0.080802 0.590355 0.307310
0.153132 -0.744757 -0.327937
0.104692 0.701704 -0.036034
0.181740 0.143715 0.111347
-0.391265 0.550962 -0.134656
-0.076905 -0.688593 -0.049316
-0.763114 -0.072788 -0.179691
-0.502654 -0.122507 0.137269
0.422862 -0.851290 -0.058997
-0.367984 0.763866 0.235079
0.261570 0.404487 -0.208793
-0.453818 -0.359889 0.221829
0.736905 0.216184 0.072614
-0.173985 -0.004210 -0.221821
0.272003 0.317720 0.332345
0.529345 -0.385363 -0.329252
0.729769 0.239945 0.076159
0.519531 0.567050 -0.178812
-0.185773 0.094815 -0.208589
0.623192 0.510164 0.035986
0.284114 -0.419138 0.240379
-0.075802 -0.287171 -0.265168
-0.183866 0.381489 0.172084
-0.541513 -0.299882 0.277848
-0.078855 0.515487 -0.165861
0.635108 -0.199196 0.030100
-0.040577 -0.425477 -0.285260
0.149462 0.512958 0.256671
-0.503370 0.072604 -0.184056
0.119215 0.100229 0.111350
0.289129 0.312084 0.330178
-0.055433 0.585028 0.267236
0.404424 -0.475526 0.223090
-0.725197 -0.467512 0.059009
-0.138779 -0.341778 -0.266498
-0.123030 0.777923 0.017531
0.064104 0.016423 0.255390
-0.198186 0.484851 -0.159394
-0.231223 0.633304 -0.138239
0.704081 0.500350 -0.169069
0.323341 0.081998 0.091571
0.012147 0.303149 0.145585
-0.596492 0.058811 -0.177761
-0.801172 -0.370755 -0.213191
-0.187567 -0.106921 0.319412
0.408396 -0.035033 0.277104
-0.626188 -0.403168 -0.232217
-0.503761 -0.146949 0.178606
-0.385002 0.641847 0.221484
-0.364613 0.448674 -0.149566
-0.209323 0.511938 0.397645
-0.243179 0.781036 0.226480
0.024192 0.426479 0.367046
0.738578 0.250107 -0.268806
0.766434 0.415642 0.094691
0.105787 -0.072676 0.203898
0.012444 -0.055304 0.308605
-0.681022 -0.105842 0.154643
0.275386 0.629157 0.089971
-0.375240 0.242468 -0.174099
0.294645 0.305012 -0.223908
0.056789 -0.074776 -0.250346
-0.040496 0.626377 0.189990
-0.390904 0.879881 -0.052037
-0.379330 -0.430605 -0.256802
-0.254827 0.690814 -0.129115
-0.117095 0.779993 -0.027586
-0.074804 -0.217386 0.088820
0.173053 0.596774 -0.177464
-0.444300 0.494989 0.208454
-0.708108 -0.472397 0.045994
0.323012 -0.320973 0.249152
0.292526 -0.348629 -0.304382
0.385430 -0.109150 -0.282810
-0.441979 0.547888 -0.130680
0.316523 0.058030 -0.256263
-0.352612 0.465645 0.341543
-0.523653 -0.334668 0.318130
0.618592 0.513817 0.014293
0.040635 0.413010 -0.188768
0.687240 0.341129 0.092297
-0.207811 0.077102 -0.208882
0.188083 0.496164 0.289272
0.216746 -0.365782 0.045471
0.047044 -0.056975 0.305427
0.603346 -0.272243 0.023814
-0.127863 0.395917 0.229433
0.566208 0.548057 -0.153458
0.572858 0.153737 0.078996
0.383965 -0.001048 0.186805
0.404123 0.329041 0.115118
-0.735386 -0.224106 0.144718
0.027538 -0.566663 0.067010
0.230499 -0.659368 0.024032
-0.288009 -0.272161 0.171030
-0.084167 0.057301 0.157966
-0.415282 -0.349060 0.101810
-0.015290 0.345286 0.342567
-0.259938 -0.111079 -0.227626
0.136561 -0.158251 -0.267497
-0.307825 -0.260612 0.310774
-0.468872 0.135453 -0.179263
-0.577027 -0.519186 0.046591
0.450187 -0.590614 -0.347782
0.095416 -0.049993 0.226180
-0.027402 0.365968 0.166196
0.224643 -0.786361 -0.154317
-0.297725 -0.517434 -0.274524
-0.419523 0.171600 -0.179041
-0.291580 -0.229058 -0.239467
-0.195029 0.807068 -0.019931
0.319231 0.287524 -0.228177
-0.161430 -0.653037 -0.107748
-0.006432 0.565909 -0.165859
-0.335191 0.851539 0.039350
-0.607537 -0.495304 -0.093575
-0.199921 0.042290 0.131607
0.261399 0.175618 0.108443
0.183925 -0.659543 0.204884
0.346843 0.283846 0.114460
-0.490839 -0.289254 -0.229784
-0.754401 -0.328580 0.133460
-0.188042 0.631000 0.281315
-0.069329 -0.670768 -0.270552
-0.186923 -0.309852 -0.258425
-0.400339 -0.568573 -0.100061
0.718755 0.486709 -0.078432
0.221330 -0.767403 -0.345920
0.210403 0.076916 -0.244820
0.064707 0.010446 0.168461
0.314616 -0.005877 0.081477
-0.617768 0.073498 -0.174122
0.409833 -0.321398 -0.311096
0.385960 0.327931 -0.228921
-0.311889 -0.287776 0.100494
0.011329 0.558233 0.299494
-0.587635 0.157269 0.179090
0.092176 -0.737918 -0.167415
-0.053686 -0.169453 -0.252542
0.278568 0.389724 0.340666
-0.366283 -0.260554 -0.236939
-0.417635 -0.168468 -0.221166
0.439324 -0.597095 -0.347648
-0.548357 0.474008 0.159365
0.551643 -0.008565 0.060791
-0.175851 0.804724 -0.068362
0.567963 0.547692 -0.156266
0.032234 -0.366485 -0.284233
-0.134381 0.642961 0.200099
-0.459888 0.228974 -0.168495
-0.527053 0.501943 0.216419
-0.486180 0.620980 0.227598
0.188590 -0.242377 0.063117
-0.827450 -0.409751 -0.170627
0.339651 -0.823660 -0.021584
0.046986 -0.462221 -0.297313
0.444171 0.047007 -0.268585
-0.463639 -0.360077 0.194400
-0.472685 0.521046 -0.131355
0.105728 -0.403503 -0.295112
-0.303341 0.644016 0.422016
0.757619 0.167283 0.064801
-0.057443 0.767669 -0.123985
-0.737171 0.046279 -0.163172
0.142530 -0.763054 -0.089988
-0.399065 -0.565173 -0.141601
0.216706 0.598578 0.164473
-0.067759 -0.148982 -0.248807
-0.233824 -0.449454 -0.271623
-0.108358 -0.395695 -0.275764
0.502617 -0.049913 0.257542
-0.230920 0.308888 0.167166
-0.042922 -0.689248 -0.172851
0.306909 0.640327 -0.151558
0.416308 0.549687 0.141299
-0.638744 -0.076904 0.154583
0.761536 0.434456 -0.248029
-0.345943 0.847890 0.120003
0.407754 -0.441765 -0.325770
0.153789 0.431199 -0.196241
-0.464333 -0.135956 0.226511
0.513484 0.570225 -0.189796
-0.634049 -0.497084 0.027488
-0.278435 -0.602201 -0.206055
-0.055288 0.745501 0.106672
-0.384026 -0.082560 -0.213451
-0.238293 -0.123854 -0.231062
0.305746 -0.809473 -0.216861
-0.679849 -0.340176 -0.219836
0.379356 -0.846991 -0.095346
-0.180435 0.723246 0.213961
0.352815 -0.715842 0.165875
-0.087125 -0.323834 0.076743
0.730567 0.460872 0.103352
0.672297 -0.137484 0.034521
-0.226556 -0.124636 0.320574
0.044822 -0.132117 0.288220
0.579055 -0.191211 -0.309563
0.129228 -0.539136 -0.313867
-0.775119 -0.204157 0.150592
-0.283584 0.472512 -0.153583
-0.474727 0.457172 0.206401
-0.727603 -0.064583 0.163734
-0.819817 -0.422995 -0.057206
0.723883 0.431862 0.100346
0.103822 -0.364799 -0.290173
0.274761 0.637612 0.001241
-0.150136 0.789732 -0.005595
-0.242596 -0.507299 0.067455
-0.080640 0.210379 -0.203357
-0.427800 0.266747 0.178873
0.516032 0.143116 -0.262897
0.569428 -0.111941 -0.298955
-0.141354 -0.628452 -0.301652
-0.495221 0.527568 -0.128615
0.576384 0.248725 0.090415
-0.457064 0.644871 -0.117417
0.450042 0.340604 0.112602
-0.712417 -0.005438 -0.175734
0.363242 -0.484684 0.225496
-0.634856 0.122921 0.178907
-0.171337 0.408267 0.263385
0.298454 -0.653290 0.210255
0.446101 0.238377 0.100326
0.701623 0.493583 -0.086683
-0.447199 0.605476 -0.123126
-0.524580 -0.529082 -0.048285
0.325611 -0.656303 0.207551
-0.417307 0.880260 0.045341
-0.235269 0.429087 0.284650
0.127446 -0.766223 0.003727
0.328584 -0.702888 -0.005730
0.215607 -0.687512 0.005869
-0.095249 -0.347156 0.222498
0.570276 0.353152 -0.241638
-0.499251 -0.388554 0.104148
-0.047209 0.763896 -0.122646
-0.016275 -0.715040 0.002754
0.088765 -0.400676 0.098371
0.534899 0.547566 -0.027859
0.044514 -0.537952 -0.306446
0.526955 0.258675 0.095887
0.618154 0.148406 -0.271014
0.299211 0.362999 -0.217145
-0.027170 0.624658 -0.156829
-0.424622 -0.341156 0.192915
0.017557 -0.595173 0.241548
0.581285 0.521627 0.073474
-0.302152 0.217764 0.162039
0.678597 0.511648 -0.192912
0.127646 -0.337823 -0.288890
-0.495748 0.663507 0.060498
-0.522974 -0.173090 0.281605
-0.432013 0.244814 -0.168934
-0.396402 -0.260030 0.318452
0.374503 0.607097 -0.053143
0.107476 -0.025203 0.096881
-0.124330 0.045199 -0.219988
0.084283 0.338643 -0.201693
-0.517768 0.396891 0.202659
-0.015718 -0.714980 -0.000042
0.209100 -0.781460 -0.147415
-0.105648 0.621265 -0.150508
-0.001153 -0.586541 0.129255
0.280053 0.474596 0.168319
-0.559678 -0.520761 -0.003098
-0.148651 -0.660077 -0.080972
0.132438 0.514074 0.310069
-0.054133 -0.412662 0.270226
-0.399415 0.864565 0.145747
-0.124027 0.242859 -0.195623
0.644636 0.508807 -0.031785
-0.330183 0.511935 0.408023
0.256450 0.119891 0.101992
0.468711 0.350208 0.112184
0.437765 0.581531 -0.020684
-0.605894 -0.483322 -0.229027
-0.346339 0.789465 -0.109083
-0.220646 0.633655 -0.139104
0.390082 0.367339 0.121050
-0.029320 0.473212 -0.175332
-0.180359 -0.017993 0.329766
-0.074237 0.763408 -0.013522
-0.151910 0.568528 0.399697
0.449132 -0.383361 0.023662
-0.481441 -0.300197 -0.231941
0.403510 -0.782542 -0.367456
-0.559301 -0.260217 0.330001
0.559436 0.238551 -0.254848
-0.116418 0.387491 0.276276
0.248639 0.088868 -0.246628
-0.085715 -0.379325 0.277052
-0.390375 -0.030656 -0.206501
0.087229 0.697881 0.072283
0.586934 -0.359195 -0.101906
0.457325 -0.204166 -0.300708
0.541984 0.401313 0.112197
-0.099762 -0.411287 -0.278426
-0.066268 -0.568004 0.179677
-0.753362 -0.404151 0.124045
-0.269533 0.255231 0.163861
-0.448601 0.851125 -0.075866
0.219613 -0.651793 0.217210
0.442160 0.567306 0.115750
-0.248675 0.455488 -0.158682
-0.234818 0.681218 -0.132018
0.431987 0.573864 0.084162
-0.066040 0.756028 0.034521
0.368977 -0.355932 -0.311849
-0.583933 0.184417 0.182122
-0.004799 -0.373211 -0.281883
0.340086 -0.833701 -0.087688
-0.135711 -0.053884 -0.231237
0.534212 -0.017928 0.061132
0.511541 0.099654 -0.267874
0.194363 -0.383239 0.045239
0.012355 0.548579 -0.169611
0.417167 0.138904 0.090536
-0.067985 -0.000585 -0.230476
0.779760 0.299494 0.079214
0.528513 -0.162857 -0.301724
0.162258 -0.412847 -0.301120
-0.618191 0.154551 -0.164084
-0.611265 -0.161135 -0.203633
0.542445 -0.479519 -0.125458
-0.037302 0.091137 -0.221793
-0.132898 -0.532293 -0.290512
0.278273 0.482660 -0.200581
0.218347 -0.696330 0.004545
-0.261999 0.732311 -0.123379
0.140253 -0.222165 0.069762
-0.234462 0.801840 0.187943
-0.092675 -0.028135 0.320985
-0.131911 -0.668008 -0.059818
0.614720 0.438409 -0.234934
0.566831 0.553559 -0.215151
0.408976 0.463415 0.131283
0.433286 -0.328948 -0.314042
0.812159 0.467133 -0.226355
0.483591 0.035272 -0.273418
0.560340 -0.351462 0.017732
-0.000508 0.503080 -0.174121
-0.474881 -0.417225 -0.246945
-0.604667 0.329475 0.108724
-0.120307 0.162989 -0.205799
0.081090 -0.114530 0.088124
0.172996 0.095573 -0.239305
0.305367 -0.827239 -0.023920
0.363048 0.387341 0.125840
0.623314 0.513588 -0.001385
0.289611 0.181976 0.106805
0.108514 0.686416 -0.160860
-0.345068 0.381218 0.185894
0.789695 0.360732 -0.259545
-0.231740 0.675650 0.212494
-0.712272 -0.126264 -0.190656
0.000795 -0.195483 0.085030
0.642850 0.522081 -0.167999
-0.411408 -0.520441 0.080330
0.659957 -0.022373 -0.295677
-0.547390 -0.366020 -0.234400
0.788233 0.472377 -0.190943
0.748933 0.356611 0.088910
0.045894 0.165348 -0.219780
-0.148173 0.618212 0.265946
-0.379590 -0.321092 0.201983
0.207980 0.492576 0.251485
-0.066716 0.361607 0.366848
0.278737 0.469947 0.223490
0.355030 -0.842714 -0.047966
-0.066234 0.712601 -0.142622
-0.567429 0.057376 -0.180434
-0.295480 0.114479 0.148721
-0.288412 0.071690 0.142834
0.159140 0.078609 -0.240208
-0.197877 -0.653700 0.039458
-0.195808 0.759582 0.219765
0.727728 0.114884 -0.277758
0.324082 0.482601 -0.204522
-0.121420 -0.385408 0.121336
-0.249999 0.806412 0.198372
-0.396162 -0.582398 0.032898
0.193822 -0.068342 -0.261320
0.492674 0.220651 0.094139
-0.060757 0.543356 0.388763
-0.244774 0.751580 -0.122480
-0.143971 -0.191575 -0.247518
0.802334 0.456670 -0.075830
0.146027 -0.078535 0.086989
-0.451452 0.706055 0.235113
-0.280909 -0.266376 0.156522
-0.020873 0.732765 0.111698
-0.266285 -0.623764 -0.020333
-0.333486 0.064055 -0.199700
-0.213032 0.377139 -0.171411
0.320150 0.428536 -0.210856
0.481924 0.565515 -0.017747
-0.143295 0.008872 0.280300
0.629189 -0.042625 -0.295534
-0.450336 0.072574 0.156848
-0.391489 0.086915 -0.191898
-0.317236 -0.065317 0.225143
-0.392738 0.561732 -0.133200
0.153481 -0.192088 0.072337
0.257437 0.481403 0.181865
0.537324 -0.499646 -0.111320
-0.209010 0.789534 0.222783
-0.580017 -0.187516 0.203309
0.019899 0.396916 -0.188973
-0.390905 0.765819 0.237288
-0.312175 -0.051669 0.156902
0.412417 -0.414238 -0.322774
0.675599 0.113132 -0.280300
-0.285122 0.822126 0.163969
0.367539 -0.712340 -0.355705
0.167880 0.185981 -0.227710
0.375374 0.289079 -0.232806
-0.119766 0.227518 0.147580
-0.405761 0.301803 -0.164156
0.038784 -0.076243 0.303759
-0.035706 -0.077392 0.310014
0.004461 0.039252 0.320958
-0.013641 -0.688798 0.025397
-0.538873 -0.522649 -0.062701
-0.471822 -0.372032 0.243257
0.093084 -0.423869 0.194256
0.230348 0.479755 0.303726
0.434928 -0.241656 0.249329
0.679549 0.028264 -0.291111
0.137774 -0.760857 -0.095388
-0.577766 0.205013 0.184134
0.500835 0.088372 -0.268347
0.605873 -0.127720 0.041431
-0.080935 0.511548 0.386571
0.579972 0.496176 0.120641
0.029907 0.716436 0.092563
0.153155 -0.295159 -0.285816
-0.690535 -0.479905 0.059388
0.013464 0.346167 0.222573
0.209428 0.138264 -0.237166
-0.496086 -0.521436 -0.240186
0.150470 -0.440011 -0.303459
0.130380 0.306891 0.196625
0.440305 -0.759058 -0.170691
-0.045297 -0.140894 0.303002
-0.013293 0.567451 0.294759
-0.361507 -0.007132 -0.206078
-0.458055 0.065370 0.156622
-0.133092 -0.201315 0.191157
0.643898 0.479606 -0.232356
0.287486 -0.687995 0.113594
0.462693 -0.022555 0.116089
-0.261316 0.816003 0.138492
0.276974 -0.385194 0.245181
0.595134 -0.202868 0.033080
0.119921 -0.598092 -0.320343
-0.086852 -0.583486 -0.300783
-0.328139 -0.440025 -0.262360
-0.219903 -0.161512 -0.237288
-0.345103 0.709578 0.226415
0.383148 0.283525 -0.234160
0.146090 -0.327694 0.056239
0.060604 -0.081254 0.301267
0.056821 0.643868 -0.161671
0.505891 0.210502 0.091752
0.446297 -0.720361 -0.017995
-0.001967 -0.297166 -0.272742
0.538979 -0.183624 -0.305186
0.203698 0.346645 -0.210960
0.144337 0.146974 0.114961
-0.685686 0.183699 -0.131024
0.156746 0.582962 -0.177768
-0.584924 -0.509664 0.096561
0.696368 0.360989 0.093964
0.325622 -0.564684 0.218855
-0.238796 0.643533 0.341267
0.375507 0.273526 0.110725
0.088438 0.534738 0.256419
0.350632 -0.648741 -0.346405
-0.316057 0.231358 0.164910
-0.273835 -0.440791 -0.267118
-0.443080 -0.192314 -0.221923
-0.322165 -0.024252 -0.211569
-0.084246 0.377025 0.265456
-0.652731 -0.406135 0.115159
-0.345049 -0.310384 -0.244911
0.462417 -0.095949 -0.287792
0.070806 -0.396939 0.163568
0.110624 0.616859 -0.169624
-0.207180 0.799062 0.113051
0.216432 0.488618 0.261673
0.267401 -0.677790 0.002621
0.035857 -0.382010 0.136965
-0.529986 -0.285282 0.326808
0.159372 0.322046 0.342551
0.670788 -0.035933 0.047182
0.484833 -0.351323 -0.321229
0.104436 -0.065833 0.278276
-0.547570 0.215305 0.182811
-0.374964 -0.066554 0.133208
0.080153 -0.286576 -0.278488
0.064458 -0.285999 -0.277069
0.211450 0.012804 0.092642
-0.628209 -0.369051 0.117629
0.533083 0.539785 0.062990
-0.034609 0.234142 -0.204378
0.181198 0.538158 -0.185396
0.515514 0.104907 -0.267567
0.094732 0.705346 -0.037015
-0.287272 -0.613124 -0.054365
0.435514 -0.012971 0.117223
-0.120980 -0.184131 0.304166
0.099209 -0.419576 0.230437
0.244784 -0.188351 -0.280505
0.006302 0.550932 0.383939
-0.555149 0.481103 -0.129202
-0.297208 0.457598 0.215371
-0.506965 -0.458169 -0.249242
-0.114462 -0.664434 -0.165388
0.075591 -0.330792 0.061911
-0.495578 0.242960 -0.163704
0.304237 -0.372128 0.244452
0.259342 0.652108 -0.095753
-0.229645 0.754786 0.222079
0.070027 0.302966 0.140592
0.394737 -0.155618 -0.289343
-0.049327 0.585388 0.239893
-0.034928 0.369264 0.157785
-0.186857 0.225384 0.153078
0.133271 -0.364448 -0.292658
0.265073 -0.407691 -0.309313
0.212028 0.490665 0.256537
0.243736 -0.549139 -0.324935
0.495885 -0.183105 0.251319
-0.228233 -0.441938 0.074287
0.108225 0.535753 -0.179426
-0.185972 0.792742 0.099672
0.392825 -0.108852 0.269332
0.391758 0.610196 -0.152851
0.251630 -0.433817 -0.311382
-0.174226 -0.069273 0.322912
-0.145690 0.398768 0.267215
0.398280 -0.750825 -0.017631
-0.181440 -0.087960 -0.231515
-0.374925 0.282399 -0.169198
-0.353546 0.293611 -0.169651
0.100359 -0.066380 -0.253052
-0.057270 0.259458 0.146155
0.059411 -0.742029 0.002806
-0.122584 0.043207 0.131852
-0.180873 -0.643491 -0.135922
0.384554 -0.822061 -0.025242
-0.348693 -0.596441 0.065566
-0.111417 -0.657127 -0.255847
0.060935 -0.393534 0.164798
0.247835 -0.325318 -0.297668
-0.304889 -0.599194 -0.136811
0.049271 -0.711760 -0.284480
-0.488426 0.136297 -0.177480
-0.131645 0.188258 -0.201707
0.123919 0.064349 0.106519
-0.296640 0.336451 0.176211
0.225407 -0.115506 -0.269852
-0.093239 -0.460302 0.267705
-0.118233 -0.196869 0.207368
0.434996 -0.547300 0.004330
0.557857 0.364211 0.106256
-0.127335 -0.669703 -0.059134
0.098752 0.515469 0.371624
-0.011494 0.347882 0.299999
0.169393 -0.776571 -0.047522
0.384281 -0.828278 -0.315965
0.390544 -0.003574 0.188755
0.199606 -0.652437 0.068043
0.638212 -0.245613 0.024106
0.261830 -0.642872 0.214685
-0.453057 -0.502451 0.086127
0.033157 0.336121 0.255177
-0.275617 0.842636 -0.093618
0.055396 -0.249177 -0.271747
-0.090246 -0.154778 0.305149
-0.300021 0.673479 0.253767
0.401196 -0.854305 -0.100442
0.336251 0.228649 0.108559
0.851019 0.446480 -0.153085
-0.221084 0.474185 0.393996
-0.233615 -0.040920 0.320162
0.081565 -0.055472 -0.250092
-0.304264 0.791162 0.232975
-0.286566 -0.239347 0.311572
-0.236540 0.822193 -0.023440
0.460888 -0.619259 -0.006773
-0.684145 -0.107416 -0.190746
-0.520859 -0.347681 0.185239
0.071579 0.423968 0.362667
0.235691 0.649996 0.017901
-0.544205 0.587039 -0.111669
-0.013717 -0.583729 0.147227
0.546264 -0.184217 0.245659
-0.151641 0.659007 0.203561
-0.178507 -0.185480 -0.243800
-0.355110 -0.590242 -0.040314
-0.165527 -0.009596 0.327874
0.467694 -0.367420 -0.321744
0.049704 0.709017 -0.153021
-0.575132 0.302570 -0.149517
-0.269475 0.449416 0.196989
0.042484 0.352864 0.356391
0.302671 0.546460 -0.194803
0.349744 -0.663547 0.001599
-0.214065 0.107038 -0.204651
0.775085 0.469202 -0.106200
-0.470824 0.431995 0.202959
-0.441352 0.874863 -0.083118
-0.008435 -0.326918 0.069604
-0.870268 -0.394049 -0.175324
-0.698508 -0.467116 -0.047819
0.245996 -0.232966 -0.286114
0.006987 0.341493 0.297850
0.529931 -0.014377 -0.283524
0.349844 -0.714250 0.156950
-0.083077 -0.187609 0.300482
0.148937 -0.272282 -0.282631
0.291513 0.647027 -0.164613
0.035232 -0.628847 0.028598
-0.374509 0.485880 0.207577
0.476723 0.298452 -0.240353
0.835451 0.396626 -0.194962
0.323589 0.569561 -0.193749
-0.552895 0.446283 0.198432
0.000145 0.340504 0.334797
0.162177 0.305524 0.340271
-0.563842 -0.252932 0.291118
-0.620033 -0.485810 -0.147884
-0.020655 0.477566 -0.175539
0.287211 -0.647233 -0.340772
0.615119 -0.010027 -0.290303
0.088529 0.389123 0.356911
0.322858 0.451733 0.200717
-0.354512 -0.512976 0.076365
0.056200 -0.183854 0.081707
-0.106852 0.382770 0.290402
0.426609 0.577625 0.064284
-0.523868 0.059483 0.161548
-0.310327 0.849730 -0.036696
0.120147 0.152402 -0.227754
-0.265631 0.659948 0.267453
-0.730955 -0.141959 0.154474
-0.343741 -0.104926 -0.219671
-0.458272 -0.558036 0.008982
-0.235632 0.182596 0.151987
0.065981 0.711559 0.006505
-0.726679 -0.291480 0.135657
-0.157194 0.074094 0.131862
-0.663252 -0.447550 0.110952
0.235551 -0.262657 -0.288881
-0.062057 0.740183 0.190001
0.362520 -0.095180 0.273621
-0.279610 0.472677 -0.153904
-0.326520 0.142107 0.154796
-0.531491 -0.282861 0.327236
-0.350036 -0.075072 0.188996
0.586303 0.130908 -0.270438
0.060920 0.015772 0.122246
0.584913 0.403156 -0.236724
-0.098598 0.379763 0.291099
0.638716 0.477821 -0.232131
0.022319 0.459694 0.371305
0.356501 0.438952 -0.212692
-0.547736 -0.092722 -0.200646
-0.405115 -0.534826 -0.267448
0.456690 0.485462 0.129906
-0.207041 -0.289359 0.091294
0.542647 0.557796 -0.167888
0.069027 0.003966 0.213775
0.068271 -0.108382 0.212173
0.205971 -0.767509 -0.285754
-0.042015 0.610605 -0.157288
-0.575655 -0.375439 0.112327
0.545264 0.111000 0.076092
0.002373 -0.253568 0.077727
0.249591 -0.764440 -0.006542
-0.318334 -0.148069 0.325564
0.104515 0.707236 -0.094983
-0.329100 0.764655 -0.113625
0.436345 0.429874 -0.220669
-0.076842 -0.203685 0.090685
-0.423508 0.002560 0.145905
-0.429977 -0.347847 -0.242241
-0.332639 0.459265 0.333547
-0.392801 0.432363 0.196304
0.175312 -0.118806 0.079505
0.013904 -0.721115 -0.047747
-0.379373 0.441427 0.196269
0.100210 0.122386 0.115717
-0.519540 0.414752 -0.140448
-0.597037 -0.439980 0.106200
0.198775 -0.771405 -0.216115
-0.428868 0.790376 0.240864
0.688651 0.497984 -0.084269
-0.757746 -0.076523 -0.180613
-0.526302 -0.159410 0.188759
-0.650101 0.290659 -0.140946
0.272021 0.112278 -0.245747
-0.348455 0.584813 0.284915
-0.120019 -0.601711 0.045279
0.136554 0.301987 0.225758
0.412508 -0.768660 -0.361410
-0.477456 -0.269117 0.324292
0.166229 0.631602 0.172882
-0.028125 -0.699709 -0.116955
0.120059 0.353982 -0.202872
0.261715 -0.470253 0.235996
-0.336013 -0.053471 -0.213985
-0.590410 -0.020045 -0.188014
-0.569477 -0.011645 0.156688
0.462490 0.400608 -0.226526
-0.323784 0.832849 0.196967
0.366879 -0.000965 -0.267867
-0.649040 0.294061 -0.141814
0.510601 -0.030205 -0.283817
-0.359800 -0.312967 0.210178
-0.139162 0.384618 0.168631
0.290148 -0.792201 -0.343091
0.122824 -0.348970 -0.289851
-0.038317 -0.131666 -0.249199
0.352916 0.536033 0.145058
0.386314 -0.026806 0.278370
0.353463 0.096891 -0.254640
0.229320 -0.079129 -0.265699
-0.372801 0.857135 0.123559
0.278365 -0.816523 -0.035661
-0.158473 0.395954 0.378966
0.657190 0.250088 0.083644
-0.814920 -0.178665 -0.164965
-0.409581 0.580032 0.215967
-0.579898 -0.136860 -0.203331
0.349675 -0.057614 0.075700
0.430964 -0.269255 -0.306476
-0.384709 0.645145 0.221866
0.246055 0.280776 0.330014
0.497374 0.011117 -0.277583
0.025830 -0.374206 0.091380
-0.527187 -0.246098 0.331403
0.323891 0.453496 0.204025
0.490096 0.500281 0.128866
0.276646 -0.730572 -0.004686
0.726271 0.497411 -0.222658
-0.396752 0.097195 0.155285
0.299056 0.376502 -0.215465
-0.762404 -0.291083 0.138774
0.398048 0.594958 -0.012783
-0.459948 0.122636 0.163851
-0.492531 -0.540896 -0.044104
-0.373080 0.013999 0.142986
-0.507059 -0.535398 -0.047540
-0.667264 0.088717 -0.167993
-0.264272 0.674969 -0.130259
-0.022392 0.281991 -0.199523
0.600031 0.369791 0.103323
-0.016026 -0.231402 -0.263420
-0.494385 -0.103073 -0.206505
0.340931 -0.711709 0.163813
-0.602688 -0.204848 -0.209763
-0.006684 -0.146988 0.091657
0.245446 -0.174060 -0.278798
0.169858 -0.768185 -0.139691
-0.001193 0.035362 -0.231776
-0.605272 -0.319186 0.121812
-0.864023 -0.364992 -0.207082
0.308429 -0.696432 -0.003203
-0.273719 -0.280675 0.264366
0.322171 -0.754095 -0.356961
0.112716 -0.068688 -0.254398
-0.113691 0.005118 -0.225847
0.729367 0.467798 0.084621
0.113001 -0.652008 0.019061
0.370562 -0.820093 -0.351473
0.461787 -0.741680 -0.050025
0.469879 0.565224 0.031678
0.095209 0.253010 0.132265
0.282663 -0.147510 -0.278718
-0.681005 -0.131565 -0.193995
0.506059 0.546376 0.095797
0.234008 0.666679 -0.155450
0.313455 0.446926 0.140381
-0.355969 0.798180 0.238281
0.430845 -0.044511 -0.278734
-0.118960 0.435801 0.380490
0.271665 0.118244 0.100482
-0.257533 0.625620 0.415812
0.315460 0.613625 0.103379
-0.584826 -0.214980 0.190144
-0.599650 0.121061 0.175654
-0.292619 -0.618464 0.023732
-0.476547 0.385617 -0.147735
0.586130 0.278908 0.093302
-0.546956 0.568038 -0.119178
0.428830 0.561890 -0.203733
-0.050338 0.742048 0.124865
-0.231227 0.119978 -0.201581
-0.163100 0.411022 0.173945
-0.196684 -0.253036 0.094887
-0.103657 0.454733 -0.171228
0.222087 0.508151 -0.192610
0.410023 0.596589 -0.076375
-0.360231 0.843515 0.222057
-0.477486 0.571116 -0.124765
-0.411154 0.868975 0.143328
0.505675 -0.391914 -0.328028
-0.501265 0.220747 0.179506
0.079707 0.538139 0.253320
0.492615 0.228123 0.095066
-0.464962 0.260331 -0.164190
0.050217 -0.728283 -0.110028
0.334429 0.627461 -0.118633
-0.125877 0.563627 0.396857
-0.267054 0.598858 0.413328
-0.567625 -0.506307 -0.128352
-0.243544 0.649196 0.298472
0.015333 0.464338 -0.180262
-0.131573 -0.541947 0.149776
0.216917 -0.660449 0.087875
-0.408138 -0.531141 -0.266734
-0.539381 0.191055 0.179115
-0.140561 0.703094 -0.137413
0.854652 0.407361 -0.074229
-0.289605 -0.616625 -0.007669
-0.111505 0.778275 -0.030557
0.505393 -0.084164 -0.290029
-0.095392 0.410719 -0.177369
0.052578 -0.734899 -0.047789
-0.762199 -0.436338 -0.134809
0.286007 0.630586 0.033757
0.013085 0.738100 -0.076302
-0.481861 -0.365589 0.174881
-0.581268 -0.213097 -0.212621
0.154532 0.285347 0.336024
-0.606219 -0.145911 0.143275
-0.541388 0.491786 0.165928
0.194758 -0.633889 -0.331186
0.176153 0.657004 0.171146
-0.410793 0.799717 0.243179
0.801674 0.354595 0.084132
-0.004059 -0.590962 0.188067
-0.835581 -0.238504 -0.165277
0.088273 -0.398410 -0.292985
-0.118538 -0.181664 0.304261
-0.086661 -0.111038 -0.242502
-0.817627 -0.436432 0.079203
0.173560 -0.087612 -0.261958
0.843172 0.413431 0.087828
0.011236 -0.377872 0.186975
0.010971 0.292400 -0.201103
-0.017885 0.346101 0.343751
-0.276372 -0.239864 -0.242107
-0.162522 0.323798 0.163132
-0.178906 0.328934 0.165173
0.227410 -0.792496 -0.098827
0.245937 -0.781679 -0.286602
-0.489639 -0.151379 -0.212874
-0.225033 -0.615558 -0.267301
-0.248648 0.653444 0.272297
-0.107859 0.178537 -0.204949
0.313481 -0.576805 0.218402
-0.561881 -0.254708 0.333078
-0.414371 0.363159 -0.155845
0.509123 0.298218 0.102298
0.206980 0.663125 -0.013281
0.403476 -0.575696 0.210811
-0.275090 -0.100666 0.327700
0.504511 0.287161 0.101330
0.260733 0.476551 0.221498
-0.254386 -0.608446 -0.231156
0.107683 -0.645569 -0.325150
-0.612538 0.280998 -0.148966
0.200821 0.396232 -0.204594
-0.857763 -0.404960 -0.105774
-0.425175 0.750340 0.238321
0.485537 -0.153357 -0.296862
-0.115905 0.018196 0.303322
0.502475 -0.246047 -0.309754
-0.662192 -0.227392 -0.207435
-0.124698 -0.374505 -0.271746
-0.531261 -0.519207 -0.129050
-0.287520 0.816900 0.229509
-0.104288 -0.671124 -0.132385
-0.311601 0.678180 0.247601
0.075436 -0.742326 -0.055574
-0.038163 -0.581868 0.221102
0.015814 0.537653 0.381484
0.570407 0.028468 -0.281713
-0.605387 -0.492010 -0.137336
0.123887 0.571887 -0.176313
0.012249 -0.530192 -0.302718
0.257238 0.531859 0.152759
0.060101 -0.014335 -0.243172
0.029832 0.390690 -0.190595
0.235012 -0.284405 -0.291518
-0.196701 -0.635436 -0.161924
-0.152861 -0.023835 -0.226056
0.324788 0.447872 0.226105
0.813662 0.443710 0.020320
0.170271 -0.516858 0.030820
0.064160 0.010971 0.157313
-0.239314 0.814502 0.070123
0.237152 0.654042 -0.031320
0.226664 0.643398 -0.176314
-0.090252 0.223745 0.144580
0.671173 0.286363 0.086919
-0.072785 -0.151457 -0.248681
0.213257 0.019899 0.093362
-0.000370 -0.160341 -0.255996
0.174711 0.286313 0.248073
-0.524726 0.141125 0.171696
0.192773 -0.516756 0.086015
-0.213537 -0.437530 -0.271894
0.057937 0.537494 0.343925
-0.811662 -0.262442 -0.198924
0.113819 0.698433 -0.035856
-0.247578 0.256864 -0.183285
-0.083416 -0.400138 0.274286
0.253219 0.434025 -0.204431
0.548440 0.325356 0.102270
-0.260399 -0.606755 -0.226281
-0.189031 -0.206692 -0.245514
-0.443918 -0.350483 0.311371
0.067002 -0.399003 -0.291231
-0.081816 -0.022297 -0.231968
-0.389043 0.850864 -0.097840
0.416147 -0.486027 -0.331953
0.114884 -0.759200 -0.025292
0.317471 -0.501202 -0.325351
-0.748394 -0.400475 0.124072
-0.268603 0.305757 0.170016
0.291462 0.470929 0.164011
0.080428 -0.018190 0.240359
-0.349199 -0.593071 -0.032528
0.320422 -0.818770 -0.173050
0.256961 0.482916 -0.198719
-0.338692 -0.293210 0.151504
0.295660 -0.717575 -0.350178
-0.110140 0.646390 -0.147022
0.733017 0.176072 -0.277464
0.052407 0.097081 -0.228763
0.193742 0.491293 0.320030
0.147157 -0.629421 0.033124
0.230008 0.287739 -0.220488
-0.297513 -0.169188 -0.231570
0.389179 -0.850940 -0.090534
-0.065863 0.316156 -0.191574
-0.292173 -0.025462 0.131169
-0.206206 -0.170496 0.313167
-0.254558 0.818148 0.089391
0.177779 -0.347230 -0.294356
0.054461 -0.104565 0.148785
0.706892 0.221786 -0.269579
0.180947 -0.757459 -0.297921
-0.472527 0.275077 -0.161720
-0.180523 0.747856 0.217005
0.200202 -0.164632 0.071713
-0.744062 0.026260 -0.169105
0.414059 0.426380 0.126276
0.171967 -0.759758 -0.238626
-0.139434 0.404086 0.171057
-0.460544 0.664388 0.230752
-0.179282 0.625312 0.308963
-0.084959 0.245049 -0.198708
-0.418237 0.742209 -0.108740
-0.349778 0.454277 -0.150149
0.165193 0.325314 0.342454
0.014572 -0.373121 0.122947
-0.630940 -0.011867 0.161938
-0.377894 0.610162 0.216964
-0.221684 0.808527 0.066767
0.003348 0.339545 0.332821
-0.310473 0.451039 0.337034
-0.212315 -0.406882 -0.268217
-0.368957 -0.464664 0.083567
0.135906 -0.760243 -0.094836
-0.213886 -0.075028 -0.227133
-0.331375 0.532380 0.410648
0.621819 0.530586 -0.224169
0.080842 0.632067 -0.165190
-0.161570 -0.210752 0.165655
-0.215651 0.430778 0.191040
-0.196735 0.812047 -0.067038
0.310703 -0.174341 0.085464
0.223681 0.239986 -0.225838
0.452345 -0.509401 0.007517
0.600471 -0.084019 0.047287
-0.446807 0.076055 -0.188487
0.421483 -0.167100 -0.293057
0.652090 0.011075 -0.290874
-0.356136 -0.213633 0.320720
-0.097254 0.195485 -0.203768
0.305057 0.070086 -0.253791
-0.093771 -0.440710 -0.282571
-0.199054 0.270273 0.159665
0.466923 -0.736408 -0.024177
0.769708 0.466094 -0.052040
0.452022 -0.758977 -0.079652
0.439361 -0.383166 -0.321254
-0.170942 -0.627930 -0.299046
-0.540527 -0.438787 -0.243969
-0.480183 -0.394232 -0.243653
-0.718306 -0.462443 -0.022100
0.515840 0.490006 0.125387
0.368688 -0.311760 0.246367
-0.253019 -0.256580 0.178131
-0.390028 -0.156213 0.330716
-0.415407 0.892013 -0.088639
-0.100107 -0.503930 0.262912
-0.647557 -0.474212 -0.167125
-0.034051 0.729770 0.194616
0.365759 -0.824174 -0.289028
0.160194 -0.289259 -0.285692
0.049477 -0.126591 0.089351
0.298708 -0.113617 -0.275914
-0.304559 0.443373 0.396934
-0.247068 -0.400428 -0.264436
0.246406 0.428669 -0.204506
-0.345518 0.277761 -0.172296
-0.255324 0.657223 0.257220
0.083094 -0.738357 -0.127787
0.122423 -0.222541 -0.274216
0.601012 -0.226830 0.029618
0.209826 -0.320692 -0.293833
0.007388 0.092550 -0.225456
0.315658 0.245113 0.112359
-0.081837 -0.179930 0.210308
-0.019862 -0.436161 -0.288357
0.426413 -0.497727 0.218462
-0.121142 0.661401 -0.144225
0.511724 0.562819 -0.103204
0.339362 -0.836270 -0.057216
0.623820 0.341598 0.097801
-0.524112 -0.539000 0.056817
0.037697 0.709777 0.134397
-0.375602 0.581429 0.213221
0.171288 0.666350 0.089111
-0.443319 -0.162448 0.334523
0.074913 0.500495 -0.180916
0.154551 -0.635244 0.106340
-0.262532 0.635089 0.417410
0.306698 -0.816444 -0.145391
-0.224873 -0.026520 0.258064
0.283696 0.282310 0.119694
0.379949 0.587643 0.135613
0.246578 0.557433 0.156830
0.261582 0.473324 -0.200299
0.083164 0.448593 0.364711
-0.582435 0.252631 0.190411
0.275802 0.492826 0.146348
0.556987 -0.238034 0.032016
-0.294480 0.546277 -0.143545
-0.150993 0.535322 0.395521
-0.226411 0.649101 0.233661
-0.061206 0.043352 0.309572
-0.087536 0.378449 0.262748
0.235222 -0.799409 -0.054335
0.657967 0.511915 -0.116518
0.564542 0.469714 0.118701
-0.156302 0.243572 -0.192764
0.049461 0.233602 -0.211664
0.097677 -0.234144 0.071940
-0.408026 0.607221 0.219188
0.202443 -0.703386 0.005041
0.289336 -0.176656 -0.282888
-0.002653 -0.132556 0.152739
-0.426148 0.198031 -0.175210
-0.528545 -0.509894 -0.239862
-0.220566 -0.027509 0.276611
-0.411246 -0.324367 0.129778
-0.059032 -0.344773 0.100235
0.194760 0.318486 -0.213668
0.569831 -0.085856 0.049691
-0.254842 0.140198 -0.197058
-0.186477 0.807983 -0.062658
-0.536526 -0.268628 -0.223315
0.705099 0.116183 0.063006
-0.345200 0.851617 0.076969
-0.194545 0.799480 0.059996
-0.023421 -0.287533 -0.269711
0.514502 -0.095373 0.260546
-0.507013 0.165702 0.173207
0.671208 0.500126 -0.040332
-0.658555 -0.184458 -0.202450
-0.332568 0.548954 -0.139944
0.104101 -0.520020 -0.309350
0.315761 0.574634 0.153012
0.150145 0.676748 -0.165628
0.567667 -0.415124 -0.101856
0.319052 -0.827340 -0.075424
0.284077 0.646015 -0.125133
-0.479964 0.522623 0.214927
0.267389 0.428071 -0.206382
-0.128672 0.781517 0.000472
-0.492118 0.368766 -0.148477
-0.138516 0.255439 -0.192827
-0.593089 -0.492840 -0.175654
-0.566273 -0.283095 -0.222546
0.464214 -0.478292 -0.335126
-0.842894 -0.389575 0.133533
0.390920 0.273954 0.109455
-0.075828 -0.187310 0.272652
-0.057097 0.201307 -0.206498
0.265059 -0.098173 0.074344
0.332830 0.440469 0.308612
-0.162154 0.440574 0.384788
0.037579 -0.393569 0.254925
0.766206 0.455269 0.078093
-0.100545 0.205222 0.143178
0.557395 -0.142604 0.043757
0.289423 0.627876 0.049837
-0.612876 -0.051565 0.155489
-0.460700 -0.561223 0.052664
0.112060 0.710077 -0.154595
0.531870 0.194855 0.087590
0.645441 0.413656 -0.240626
0.464441 -0.291039 0.240701
-0.101835 0.426733 -0.174840
-0.039732 0.060836 0.265779
0.308784 -0.452922 0.234092
-0.022318 0.740467 0.034227
0.096814 -0.051884 0.244634
0.277847 -0.675976 0.021093
-0.416122 0.880169 0.041766
0.288318 0.463543 0.255704
0.177115 -0.427049 0.041314
-0.054764 -0.469954 0.263210
-0.246539 -0.446169 0.075337
-0.499618 0.492157 0.212855
-0.056200 -0.637124 -0.310034
-0.058971 -0.219956 -0.258320
-0.151386 -0.666429 -0.002003
-0.784068 -0.195728 0.121104
0.521022 0.563034 -0.141254
-0.593695 -0.196810 0.186601
-0.041038 0.762997 -0.136667
-0.200646 0.636954 0.265577
-0.185321 0.021150 -0.217718
-0.094818 -0.559736 0.200268
0.223901 -0.134608 -0.272080
0.290221 -0.667120 -0.343485
0.802949 0.402197 -0.255567
-0.077871 -0.686974 -0.063056
-0.110286 0.633292 0.196837
-0.749225 -0.046849 -0.007108
-0.301542 0.457725 0.230651
0.408940 -0.246520 -0.301780
0.427624 -0.022194 0.246958
-0.658840 0.008902 -0.178565
-0.128234 0.038569 0.143603
-0.753777 -0.429157 0.120995
0.465401 0.415853 -0.224894
0.647936 0.510529 -0.063031
0.334950 -0.701113 0.072597
0.398935 0.401652 -0.220939
0.402707 -0.102552 -0.283479
-0.359537 -0.308370 0.182999
0.271838 -0.384070 -0.306979
0.707685 0.009316 0.049597
-0.052894 0.500216 0.382765
0.585434 0.267765 -0.253476
0.764985 0.285709 0.078782
-0.335366 0.756802 0.231406
-0.436594 0.527517 -0.133656
-0.465888 0.373512 -0.150144
-0.316971 0.631525 0.404745
0.037943 0.066724 0.184426
0.545793 -0.505259 -0.030299
-0.554511 -0.528252 0.057789
-0.598135 -0.514415 0.076285
-0.219192 0.805909 0.085414
0.228003 0.191755 -0.232160
-0.293605 0.765380 0.228878
-0.152441 0.614974 0.317246
-0.133126 0.788491 -0.057574
0.373266 -0.603256 0.022981
0.029944 0.589928 -0.166019
-0.641027 0.196388 0.182736
0.007654 -0.212470 -0.263117
-0.382370 0.859232 -0.097380
-0.638012 -0.490568 -0.027515
-0.317519 -0.223867 -0.236599
-0.616515 -0.479774 -0.226456
0.452109 -0.571547 -0.345594
0.485359 -0.149490 -0.296369
-0.200850 -0.647029 -0.021026
-0.350376 0.798849 0.237884
0.179072 -0.764554 -0.214237
-0.622795 0.272858 0.119492
-0.484050 -0.359305 -0.239011
-0.740708 0.031422 -0.168756
-0.780382 -0.255850 0.144665
-0.751454 -0.399067 0.124509
0.171354 0.664258 0.111406
0.102182 -0.618317 0.024148
0.531097 0.535572 0.116026
0.742390 0.470964 0.000449
0.804719 0.328075 0.080598
-0.139508 0.200316 -0.199544
0.375749 0.123818 -0.253231
0.522889 0.393955 -0.232533
0.326124 -0.024494 0.078192
-0.160878 0.739424 -0.131185
-0.569981 0.158116 -0.167784
0.085414 -0.494287 0.040893
0.776944 0.468002 -0.100402
-0.328806 -0.581706 -0.233394
0.474433 0.225205 0.096267
0.151793 0.300263 0.185787
-0.172391 0.802597 -0.058731
-0.585477 -0.216686 0.133990
0.277529 0.464867 0.282890
-0.265119 0.663342 0.228912
0.370575 -0.185177 0.261824
0.135321 -0.625815 -0.325086
-0.300020 0.033601 -0.206332
-0.266933 0.411894 0.182969
-0.245315 0.151381 0.148967
0.241349 0.294641 0.332129
0.331681 -0.768554 -0.359562
-0.352974 0.859575 0.021069
0.697248 -0.062657 -0.038639
-0.645450 -0.479465 -0.118603
0.334001 -0.105001 -0.277881
0.222018 0.288303 0.333007
-0.367157 -0.107057 0.333609
0.663047 -0.111457 -0.174032
-0.734974 -0.011016 -0.174485
-0.236724 -0.254581 0.213397
-0.536404 -0.361341 0.110696
0.821648 0.447942 -0.055981
0.451204 0.188393 0.093720
-0.042156 -0.355866 0.154950
-0.409312 -0.268344 0.318535
0.621790 0.527133 -0.141516
-0.007295 0.521234 -0.171298
0.779008 0.240846 -0.216452
-0.826466 -0.432755 0.073539
-0.261899 -0.120543 0.324114
0.401523 -0.777354 -0.021183
-0.083975 0.761712 0.042174
-0.499089 0.019207 0.154450
-0.092864 -0.239340 -0.257801
0.441865 -0.015393 0.118929
0.452210 0.186948 0.093455
-0.215237 -0.621447 -0.241469
-0.057130 0.433238 0.374864
-0.178587 -0.326378 0.084283
-0.583956 -0.257321 0.127616
0.048962 -0.233226 0.076236
-0.290588 -0.500402 0.072427
0.334761 0.249899 0.111309
0.065774 -0.582386 0.031708
-0.425977 -0.349309 0.238533
-0.007821 -0.001509 -0.235757
-0.262632 0.658400 0.272621
-0.088282 -0.551356 0.084836
0.121173 0.682405 0.108642
-0.625194 0.130340 0.178993
-0.495799 -0.193615 0.335184
-0.074534 -0.174706 0.199799
-0.068639 0.152568 -0.211522
-0.498952 0.058382 0.159272
0.299415 0.467072 0.175013
0.071159 -0.003107 0.164897
-0.458229 0.561606 -0.127592
-0.097596 0.548759 -0.160147
-0.090520 -0.385687 0.276679
-0.305701 0.199536 0.160094
-0.162398 -0.204498 0.305210
-0.157947 0.003507 0.270280
-0.536153 -0.341383 0.113138
-0.032392 -0.230440 -0.261896
-0.596207 0.244943 -0.154818
0.307623 0.228910 0.111050
0.339348 0.105630 -0.252350
0.152591 -0.627533 0.070383
-0.225814 -0.437827 -0.270876
0.011003 -0.599741 0.224813
-0.119707 0.788646 -0.110817
-0.481557 -0.115303 0.136346
0.238002 0.452284 -0.200871
-0.139315 -0.525803 -0.289160
0.506187 -0.579497 -0.139513
-0.011454 0.211558 -0.209153
0.399493 -0.732414 -0.360926
-0.314269 -0.595475 -0.140852
-0.555285 0.557220 -0.117925
0.103898 0.305847 0.309642
0.661668 0.175614 -0.271393
-0.141910 -0.087026 0.317946
-0.482525 0.132337 -0.178475
0.220105 -0.275849 0.056280
0.184877 0.661795 0.085992
0.071972 -0.735250 -0.118527
-0.164931 0.408100 0.240571
0.268787 -0.806593 -0.105878
-0.093322 -0.274816 0.083323
0.127400 -0.535819 0.032162
-0.118093 -0.169382 -0.247002
0.403538 0.096905 -0.258939
0.289474 0.618890 0.146500
-0.163146 -0.507473 0.123973
-0.147489 0.072787 -0.214595
-0.378755 -0.035108 -0.208049
0.202957 0.284299 0.161242
0.316264 0.618321 0.049679
-0.027710 -0.097214 0.306882
0.329807 -0.172386 -0.285836
0.274839 -0.410879 0.242195
-0.530300 -0.326746 0.210765
0.432405 -0.807872 -0.027601
0.321331 0.356451 -0.219852
0.368173 0.494360 -0.206857
-0.349600 0.834643 -0.103229
-0.119172 -0.512674 -0.289270
-0.728339 -0.448719 -0.131478
0.394728 0.203936 -0.244975
0.364962 0.432818 -0.214176
0.791880 0.247831 0.071798
0.057568 0.611337 0.179713
-0.132883 0.077862 0.130240
-0.545916 -0.067025 -0.197632
0.031941 -0.731189 -0.008474
-0.074325 0.014503 0.324670
-0.355658 -0.366025 -0.250866
0.545656 0.062428 0.070065
0.213331 -0.666949 0.171713
0.372056 0.098217 0.089389
-0.002823 0.709180 -0.148490
0.172693 -0.752023 0.001594
0.485456 -0.156140 0.255542
-0.077825 0.211633 -0.203444
0.295703 -0.540692 -0.328355
0.476301 -0.442232 -0.331714
0.004268 -0.597293 0.224308
-0.137360 0.005725 0.316704
0.041172 -0.175064 0.084083
0.000335 -0.403584 -0.286072
0.008273 0.431470 -0.183711
0.122570 0.226007 -0.218880
0.707750 0.184121 0.071162
-0.370348 -0.415181 0.089793
0.568643 0.550349 -0.187524
0.583466 -0.087375 -0.297129
-0.459798 -0.258596 -0.228666
-0.572709 0.346334 0.201138
0.153193 -0.104688 -0.262316
0.545305 -0.168979 -0.303922
-0.498368 0.644930 0.089954
-0.372130 0.788122 0.238428
-0.618217 0.270400 0.161747
-0.820627 -0.436658 0.093175
0.271439 0.061642 -0.251946
0.204583 0.003286 0.092057
-0.265874 -0.127444 -0.229136
0.226137 0.407347 0.347343
0.432264 -0.056424 -0.280326
0.240571 -0.000252 0.088530
-0.212418 0.810278 0.012285
0.475545 0.548086 -0.209448
-0.402554 0.865224 0.150704
-0.502928 -0.381857 0.239426
0.638268 0.292852 0.090545
-0.526912 -0.094438 -0.202647
0.355135 -0.841249 -0.064158
-0.168862 0.778589 -0.125666
-0.240400 0.435521 0.235027
0.256202 -0.230072 0.058829
0.376566 -0.834603 -0.218147
0.449751 -0.365970 0.232716
-0.659081 -0.484755 -0.009200
0.107560 -0.356444 0.056000
0.024532 0.092912 0.155425
0.354272 -0.495089 0.224983
-0.184655 -0.453413 -0.276334
-0.242572 0.579153 0.408794
0.715278 0.146758 -0.279558
-0.183624 0.453488 -0.164515
0.360912 0.290183 -0.231428
0.145157 -0.719217 0.008007
-0.622284 0.298614 0.054350
-0.278946 0.469319 -0.154376
-0.376295 -0.324717 0.233607
-0.224961 -0.032362 0.293317
-0.617324 0.216907 -0.156464
-0.474678 0.487202 -0.135360
-0.038605 0.459951 0.376569
-0.116007 0.179405 -0.204142
0.020695 0.100878 0.155805
-0.205476 0.797772 -0.120155
0.335782 0.627236 -0.121409
-0.567753 -0.444170 0.103168
-0.209844 0.687354 -0.133405
-0.528261 0.069789 -0.182266
-0.534201 0.195490 -0.166245
0.472727 -0.418246 0.017015
-0.281626 -0.438772 -0.266200
0.594785 0.439301 0.112351
-0.252825 0.826887 -0.011448
0.285402 -0.448869 0.236600
-0.296006 -0.209603 0.316053
-0.083634 -0.341412 0.158554
-0.150480 -0.651609 -0.165212
-0.085087 0.370729 0.336551
-0.694041 -0.451292 -0.232328
-0.340458 -0.576489 -0.244849
0.831396 0.446479 -0.077666
0.082995 -0.022489 0.259058
-0.622710 0.145723 0.180678
0.145451 -0.272097 -0.282309
-0.110229 0.101272 -0.214280
0.531463 -0.461182 0.006673
0.179885 -0.382776 -0.298923
-0.593612 -0.308350 0.122148
0.310994 -0.473797 -0.321414
0.652997 -0.023492 -0.295218
0.106116 0.536146 0.173315
0.106758 0.526563 0.274137
