-0.065979 -0.507599 0.280447
-0.163624 0.424912 0.130935
0.123508 -0.787608 -0.280403
0.533652 -0.105138 0.114185
-0.176199 0.315109 0.123787
0.206327 0.367550 -0.206361
-0.367476 0.090578 -0.237090
-0.052117 -0.488250 0.281979
-0.785874 -0.140522 0.081066
-0.058119 -0.724065 -0.024443
0.295136 0.456636 0.226654
0.614378 0.459814 0.134656
-0.708950 0.113121 0.078054
-0.176534 -0.497706 -0.269336
-0.134837 -0.625880 -0.276360
-0.367414 -0.203823 0.292347
0.095554 0.403856 -0.206690
0.720913 0.020054 0.126385
-0.229123 -0.249661 -0.255086
0.671689 0.397956 0.148820
0.041917 0.026425 0.251161
0.064038 0.602718 -0.195015
0.349225 0.424722 -0.199445
0.176433 -0.844074 0.048026
0.036437 -0.399241 -0.258202
0.186919 0.685248 -0.088450
0.721570 0.173888 0.136003
0.273294 -0.458953 -0.256380
-0.568936 -0.094624 0.280450
-0.004927 0.074000 0.318179
0.042935 0.743819 0.071457
-0.666777 -0.218873 -0.263416
-0.289360 0.807938 0.151897
0.320487 0.438887 -0.199234
-0.547312 -0.079580 0.140809
0.534625 -0.291977 0.102545
0.186488 0.612759 0.150862
0.258363 0.650138 -0.085934
-0.032654 0.667900 0.149170
-0.023953 0.384567 0.218439
0.195601 -0.450829 0.290118
-0.291497 -0.095212 0.300904
0.621801 0.083339 -0.214368
-0.334179 0.884434 -0.186420
0.230140 0.485343 0.268138
0.216657 0.270437 0.171238
-0.411313 -0.256970 0.272929
0.309836 -0.213512 -0.240204
-0.133428 -0.690238 0.015988
-0.104364 0.118835 0.113219
0.132130 -0.503137 0.283400
0.049717 0.129034 -0.224917
0.760860 0.409703 -0.156317
-0.359451 0.714694 -0.197946
-0.044561 0.561844 -0.200111
0.251339 0.182563 0.125529
0.229253 -0.566711 0.283673
-0.055999 -0.672909 -0.277448
0.610341 0.481129 -0.127186
-0.488668 -0.509703 -0.077204
0.352022 0.122576 -0.218239
0.446120 -0.439516 0.091263
-0.024534 0.548250 0.347321
0.212515 0.151057 -0.219729
0.486158 -0.474464 0.090020
0.643248 -0.156180 0.113566
-0.138782 0.794676 -0.187785
-0.264366 0.158144 0.111925
-0.046244 -0.105082 -0.241778
-0.569555 -0.039436 0.092443
-0.494645 0.005416 0.096997
-0.021710 0.209440 0.120810
0.379288 -0.740976 -0.271500
0.531383 -0.112098 0.171700
0.102563 -0.593515 -0.268779
-0.568907 -0.284833 0.129667
-0.107477 0.654881 0.207201
-0.069288 -0.244134 0.091385
-0.478518 -0.181152 -0.256652
0.516410 0.080842 0.125389
0.458853 -0.084197 0.273946
-0.427242 -0.284912 -0.261927
-0.019729 0.097175 0.235602
-0.686215 -0.155259 -0.259901
-0.126096 0.506646 -0.205466
-0.219094 0.706480 0.247310
0.374612 -0.447881 -0.253316
-0.339280 0.107102 0.106984
0.517492 0.528022 -0.147573
-0.846485 -0.253366 0.072603
-0.215099 0.102261 0.109591
-0.572299 0.393196 0.062269
0.420835 -0.125520 -0.232112
-0.493104 -0.496984 -0.220036
-0.614228 -0.110744 0.289710
-0.421610 0.483012 -0.213863
-0.745418 -0.299393 0.072098
-0.402980 -0.082442 -0.248721
0.163941 -0.776729 -0.278776
-0.682359 -0.156937 -0.259915
-0.748652 -0.379227 -0.123088
0.747862 0.187935 -0.204887
-0.166419 0.504929 0.341293
-0.558123 0.055645 -0.243736
0.347724 -0.304679 0.302804
-0.447582 0.453864 -0.216291
0.279763 -0.000543 0.114766
0.327014 -0.805852 -0.276774
0.072629 0.557486 0.333831
0.447129 0.520795 0.151227
0.787347 0.178312 0.137820
0.065355 0.739097 -0.012986
-0.202985 -0.407932 0.082169
-0.647166 0.081888 0.098198
-0.277522 -0.240897 -0.255673
-0.414701 0.601317 -0.206317
0.482935 -0.087569 0.160238
-0.263177 0.699932 0.351198
-0.131282 -0.020675 0.309310
0.351117 0.295777 0.134933
0.757910 0.374732 0.149390
-0.365762 -0.448850 -0.270719
-0.388481 -0.234675 -0.257883
-0.607424 -0.455914 -0.019516
-0.434722 0.469825 -0.214994
0.257780 0.545657 0.148343
-0.031977 0.060242 -0.231124
0.027553 -0.404132 0.163241
0.738786 0.400215 -0.191849
-0.272017 -0.371310 0.078698
-0.152192 -0.000973 -0.237761
0.167034 -0.690381 0.093220
-0.246592 0.825122 0.153972
0.435610 0.097453 0.124533
-0.411307 -0.177247 0.292977
-0.138653 -0.677526 -0.121529
-0.302966 0.639256 -0.201332
0.254885 -0.215640 0.100757
0.414465 0.508448 0.149691
0.561005 -0.088585 0.115859
-0.522791 0.467260 0.125165
-0.222373 -0.116474 -0.246615
0.680682 0.196969 -0.205896
-0.656010 0.223584 -0.063696
0.512396 -0.099926 0.132551
0.151316 -0.766141 -0.278411
-0.120515 0.069417 0.109756
0.435884 0.556330 0.009247
0.161928 -0.057651 -0.233941
0.212366 0.657779 0.115017
0.619057 0.461753 0.077447
-0.220369 -0.503624 0.128635
0.472853 -0.047947 0.116330
0.756260 0.392400 0.108371
0.119641 -0.657794 -0.272391
0.380810 -0.303800 0.303634
-0.375083 -0.107825 0.298159
-0.784760 -0.362698 -0.107903
-0.408610 0.111219 0.105617
-0.680050 -0.019919 0.091073
0.043929 0.621408 -0.194320
-0.502425 -0.244996 -0.261197
-0.570951 -0.107347 -0.254210
-0.727211 0.078737 -0.130559
0.710372 0.415007 0.105993
0.347647 0.290172 0.134502
0.562084 -0.134244 0.113034
0.219246 -0.388029 -0.253219
0.278454 -0.871724 -0.252787
0.190103 0.685307 -0.110327
-0.327002 0.270460 -0.224914
0.594299 -0.075452 -0.224924
0.671276 0.020079 -0.217158
0.809676 0.380726 -0.087080
0.098017 -0.784935 -0.233651
-0.199519 0.091756 0.109300
0.354177 0.199806 0.129014
0.469146 0.415649 0.145180
-0.130361 -0.042784 -0.239860
0.087541 0.337533 0.336794
0.069086 0.097755 -0.226416
-0.405901 -0.542906 -0.175438
0.168113 -0.280096 -0.247680
-0.278596 0.097338 -0.234586
-0.480150 -0.058514 0.179274
0.337357 -0.110811 0.314662
0.598539 0.363054 0.144928
-0.044821 -0.122265 0.119421
-0.517247 -0.285616 0.127930
0.169983 0.192620 -0.218131
0.132242 0.311154 0.178652
0.512771 0.037516 -0.219782
-0.053177 0.425397 0.338982
0.073484 -0.687749 -0.275341
-0.166679 -0.190509 -0.249931
-0.252576 0.124181 0.110081
0.893029 0.283346 -0.188598
-0.565820 -0.136873 0.291878
0.204847 0.270500 0.248541
-0.069349 -0.053956 0.308683
-0.312745 0.572376 0.342076
0.118667 -0.796480 -0.214013
0.124499 0.677297 0.153438
-0.509846 0.403442 0.121485
0.496697 -0.204060 -0.235237
0.174952 -0.835889 -0.052982
0.592213 0.185471 0.133695
0.488225 0.534858 -0.046438
-0.456121 0.236288 0.112310
0.192535 -0.801733 -0.279667
-0.606799 -0.075475 -0.253061
-0.234477 -0.500833 0.184219
-0.158172 -0.282798 0.086890
-0.577294 -0.310808 -0.267058
0.341490 -0.308209 0.302437
-0.166948 0.516901 -0.205783
-0.307759 0.235202 -0.226664
0.703325 0.423039 0.043884
0.734404 0.416799 -0.077312
0.584209 0.180711 -0.209171
0.231696 -0.359632 -0.251155
0.317972 -0.054799 -0.230107
-0.750358 -0.294221 -0.270077
-0.427484 0.257681 0.114316
0.130637 -0.193225 0.099246
-0.254147 0.496260 0.229710
0.296504 0.617539 0.102983
-0.194247 -0.070408 0.304731
0.448327 0.081925 -0.218520
-0.372852 0.082498 -0.237720
0.082492 -0.546664 -0.266324
-0.242018 0.503480 0.339432
0.643897 -0.028971 0.121521
0.349731 0.300011 0.135165
0.841657 0.348773 0.133848
0.668528 -0.108135 0.117157
0.680808 0.368943 0.147223
-0.007900 -0.732239 -0.246121
0.285327 0.444832 0.348124
0.115734 -0.647459 -0.271837
-0.370119 -0.518049 0.067241
0.521347 -0.275919 0.103237
0.425518 -0.626504 -0.263272
-0.454638 -0.400617 0.072591
-0.217782 0.705422 0.252936
0.228578 0.576332 0.149574
-0.475580 0.020383 0.098378
-0.067129 -0.043665 0.309378
-0.436152 -0.326660 -0.264741
-0.222215 -0.358710 -0.261731
-0.669088 -0.352557 0.070567
-0.070673 0.809145 -0.061087
-0.390593 0.292295 0.117341
-0.417951 -0.052972 -0.247232
0.642274 0.084896 0.128590
-0.385357 0.400043 0.124189
0.075261 -0.787914 -0.042728
-0.518054 -0.427990 -0.272985
0.033517 0.062610 0.162112
-0.219314 -0.510277 -0.271123
-0.610774 -0.108044 0.261941
0.351572 -0.442406 -0.253514
-0.460473 -0.470382 -0.274282
-0.583843 -0.467374 -0.020427
-0.415925 -0.517250 -0.276164
0.727051 0.409447 0.070878
-0.650408 -0.433348 -0.040557
-0.209117 -0.181766 0.171938
-0.068177 0.137105 -0.227175
0.686809 0.062631 -0.214138
0.259563 0.480046 0.145137
0.392189 0.392735 -0.200435
0.270928 0.127231 -0.219848
-0.158808 0.679767 0.209988
-0.008638 -0.117623 0.263580
0.021769 -0.399101 0.206732
-0.112057 -0.579654 -0.272941
-0.759607 -0.368878 -0.190684
0.888305 0.269543 0.097115
-0.570951 -0.111675 -0.254480
0.750862 -0.007466 -0.211582
-0.366782 0.048754 -0.239684
0.234275 -0.722025 0.076634
0.481090 -0.091348 0.223596
0.034428 0.040821 0.308313
-0.002890 -0.419295 0.287437
0.253424 -0.253052 -0.243994
0.020248 -0.766389 0.029927
0.220235 0.496672 0.180321
0.515231 0.510255 0.107908
-0.384694 -0.028546 0.233467
0.271830 -0.801769 -0.277812
0.355220 0.592909 0.047860
0.271949 -0.878813 -0.113768
0.478521 0.105174 0.126020
0.147362 0.710542 -0.169099
-0.263797 0.888429 0.143598
0.172224 0.680831 0.068593
-0.461697 0.577774 -0.208888
-0.197674 -0.181600 0.241478
0.202220 0.663189 -0.188004
0.298215 0.449429 0.303845
-0.108689 -0.617413 -0.275219
-0.128110 -0.217902 0.091645
0.067006 -0.168539 -0.243086
-0.573395 -0.054304 0.091425
-0.678089 -0.020003 -0.251268
0.739082 0.245263 0.140868
-0.059663 0.182746 0.118255
0.245552 -0.870527 -0.051256
-0.150958 0.677130 -0.195407
0.144693 0.386598 0.341195
0.216154 0.271467 0.160627
-0.159460 -0.656937 -0.262568
-0.361780 -0.005806 -0.242973
-0.352028 -0.234941 0.243714
0.680617 0.102784 -0.211777
0.306037 -0.751241 -0.273857
-0.042996 0.131765 0.115464
0.217244 0.494640 0.227624
0.317172 0.070771 0.120093
0.143791 0.143958 -0.221782
0.033566 0.583648 0.238173
-0.637371 -0.428782 -0.188634
-0.719821 -0.230658 -0.265394
-0.385823 -0.240748 0.136137
-0.317634 0.790428 -0.192240
-0.600493 -0.221847 -0.262049
-0.762232 -0.228401 -0.266247
0.026232 -0.046526 0.311386
-0.032163 -0.724634 -0.188502
-0.341317 0.096295 0.106262
0.421197 0.352749 -0.202251
0.603604 -0.052387 0.119116
0.579989 -0.328892 0.101304
0.616742 0.477711 -0.189871
-0.501226 -0.500883 -0.113518
-0.311193 -0.358320 -0.263790
-0.628241 -0.430974 -0.219386
-0.115048 -0.557093 0.155521
-0.027919 0.036458 -0.232514
-0.397207 0.372993 0.122223
0.551669 -0.001734 -0.221321
0.540122 0.500492 0.075363
0.532532 0.505242 0.061294
-0.046543 0.376022 0.130626
-0.692630 -0.408471 -0.097922
-0.022358 0.780623 0.005301
0.333337 -0.864956 0.062067
0.457082 -0.536533 -0.256917
-0.183359 0.068306 -0.234167
0.562910 -0.290600 -0.239088
-0.383382 0.323149 0.119436
0.531062 0.513492 -0.040666
-0.844531 -0.193307 0.076398
-0.087466 0.616730 0.350121
-0.808915 -0.345247 -0.184302
-0.899074 -0.315192 0.005451
-0.357508 0.671984 -0.200567
-0.786707 -0.357653 -0.163321
-0.441243 0.242378 0.113039
-0.215036 0.625498 0.347680
0.286935 0.454577 0.308793
-0.792011 -0.252143 0.073956
0.690329 0.422170 0.141651
-0.340597 0.598579 -0.204752
0.441356 -0.024742 -0.225341
0.018310 0.752960 0.110675
-0.099159 -0.706937 0.015271
-0.347430 -0.585729 0.017355
0.387992 0.591118 -0.144763
-0.485002 -0.050187 -0.248629
-0.221025 0.024091 0.303301
-0.123284 0.332665 -0.216259
-0.286298 -0.581707 -0.277151
-0.646821 -0.259878 0.076874
0.755512 0.252582 -0.200672
0.761905 0.013459 -0.094518
-0.462508 -0.521178 -0.094984
-0.111348 -0.079354 -0.241697
-0.349809 0.644239 0.140264
0.858283 0.345024 0.074576
-0.327856 -0.220168 0.292253
-0.061959 0.751140 -0.188703
0.240362 0.299936 -0.209784
-0.088536 -0.699000 -0.162476
0.541768 0.085701 0.126286
-0.200567 0.680325 -0.196370
0.653888 0.444498 0.080535
0.705056 0.437629 -0.165084
0.367762 0.345851 0.138448
-0.412263 -0.088281 -0.249303
-0.026502 0.585933 0.349627
-0.027979 -0.434427 -0.261907
0.477802 -0.447615 0.091500
-0.589777 -0.454637 -0.153585
-0.282545 0.533090 -0.207480
0.451326 0.345267 -0.202013
-0.071911 0.782605 -0.186972
0.322108 -0.668157 0.074087
-0.210256 0.371568 -0.215868
0.262228 -0.701074 0.090851
0.111561 0.615441 -0.193108
-0.488704 0.189718 -0.233742
0.227163 -0.862177 -0.042607
-0.076864 0.585596 -0.199385
-0.622075 -0.254112 0.077813
-0.366779 -0.419713 -0.268925
-0.151363 0.058036 0.120631
-0.300486 0.005012 0.150214
0.003159 0.368012 0.263134
0.638816 -0.051437 -0.222382
-0.286445 0.751501 -0.193939
0.025145 -0.342944 0.087430
0.535985 -0.119375 0.239752
0.622895 0.218764 0.136492
0.020907 0.752486 0.099895
0.023418 -0.099587 0.135080
0.079815 0.578519 0.146226
-0.521698 -0.501204 0.026309
-0.015053 0.394620 0.337954
-0.884109 -0.270477 0.070654
-0.285332 -0.601384 0.064026
-0.036083 0.503770 0.344274
0.214896 0.011453 -0.228387
0.294112 -0.486893 0.290175
-0.341427 0.258331 0.116373
-0.043000 -0.130792 0.287896
-0.120277 0.060455 0.273370
0.376887 -0.294932 0.304095
0.018764 -0.471995 -0.263157
-0.283294 0.230411 0.115992
-0.224994 -0.636764 -0.101986
-0.858578 -0.263589 -0.270700
-0.446536 0.654577 -0.202938
-0.393765 -0.510144 -0.275201
0.480878 -0.461074 -0.251650
-0.672545 -0.428902 0.045754
-0.257079 0.905963 -0.138221
0.003244 0.763287 0.070571
0.347739 0.257803 -0.209898
-0.403834 -0.252155 0.231783
0.469916 0.544695 -0.058453
0.321992 -0.046988 0.112856
0.008442 -0.571357 -0.269600
-0.137397 -0.285224 -0.255157
-0.299396 -0.525992 -0.273980
-0.084342 -0.671724 -0.278038
-0.464589 -0.058190 0.272049
-0.533034 -0.297807 0.252104
0.007324 0.365096 0.275046
-0.317868 0.867554 -0.187431
0.512801 0.423459 -0.195692
0.300876 -0.375087 -0.250499
0.585265 0.072448 -0.215904
-0.057011 0.790418 0.102024
-0.501917 0.113120 0.103550
0.233983 -0.646274 -0.268993
0.489275 0.271983 0.136684
-0.885751 -0.324949 0.049373
0.299805 0.308833 0.183618
0.312837 0.580636 0.151816
0.073787 0.571979 -0.196706
0.167165 0.308136 0.336824
-0.004506 -0.068956 0.309266
-0.628115 -0.108645 0.104865
-0.197857 0.143313 0.112557
-0.880359 -0.234998 -0.123256
0.378494 0.099616 -0.219052
0.670846 0.042004 0.126583
0.098500 -0.102085 0.104182
0.226797 -0.171430 -0.239523
0.616066 0.149990 -0.210342
0.014634 0.761256 0.022690
0.835247 0.366568 -0.064634
0.685057 -0.019091 0.123102
-0.162163 0.858534 -0.124254
-0.505132 0.444106 -0.218248
0.101752 -0.803274 -0.010094
0.605997 -0.157337 -0.229761
-0.205435 0.693006 0.339321
-0.291352 -0.591389 -0.277124
-0.828838 -0.228829 -0.267834
-0.325521 0.139545 -0.233051
-0.334563 -0.450862 -0.270114
0.586060 0.019065 -0.219217
0.140905 -0.362715 -0.253474
-0.658635 0.121085 -0.242006
0.273142 0.467363 0.226974
-0.547550 -0.485621 -0.013569
0.200284 0.069270 0.117262
0.064612 0.444414 0.342928
-0.337842 -0.055258 0.302313
0.247380 -0.864436 -0.145812
-0.268648 0.606288 0.345225
-0.698720 -0.185841 -0.262103
0.107178 0.386663 -0.207490
0.281106 -0.282494 0.302628
-0.392572 0.503158 0.130456
-0.596232 -0.465242 0.032707
-0.283971 -0.462967 -0.269685
0.210641 0.531748 0.146371
0.205087 -0.469192 0.289194
-0.247684 -0.181483 0.296546
0.133174 -0.800020 -0.262089
-0.018988 0.532192 -0.201362
-0.048034 -0.125032 0.149964
0.218955 0.225132 0.127427
0.786129 0.197486 -0.203394
0.505887 0.357483 -0.199972
-0.059766 0.051701 -0.232308
-0.488550 0.312157 0.116286
0.023271 0.506214 0.345817
-0.141322 0.851354 -0.164975
0.864251 0.353028 -0.073270
-0.019472 0.608619 0.251099
-0.420375 0.601053 -0.206467
-0.645836 0.042418 0.095765
-0.379958 0.564742 0.134596
-0.317958 -0.058076 0.302602
-0.485750 0.134649 0.105272
-0.607961 -0.180831 0.206657
-0.286693 0.281714 0.119114
-0.060421 -0.711721 -0.176321
-0.430431 0.162780 0.108324
0.090688 -0.655442 0.125459
0.407225 -0.183992 -0.236081
0.199713 0.296729 -0.210936
-0.145547 -0.090214 0.304635
-0.437557 -0.046538 0.229150
-0.080552 -0.702688 -0.165383
-0.703961 -0.000031 -0.250628
0.637092 0.403833 -0.194006
0.407698 0.490351 -0.193979
0.215707 -0.119370 0.105849
0.310962 -0.844046 -0.279534
-0.039835 0.163084 0.117493
-0.148771 -0.433873 0.283109
-0.710233 -0.407215 0.001559
0.115792 -0.489479 -0.261975
0.178066 -0.632599 -0.269449
-0.233505 0.482034 0.285687
-0.602972 -0.446127 -0.181466
-0.616592 -0.218828 -0.262238
0.454738 0.155595 -0.213772
-0.102344 -0.693428 -0.146535
0.206381 0.662785 0.086854
-0.339070 0.121685 -0.234483
0.305280 0.329556 -0.206414
-0.159086 -0.662360 -0.191629
0.051489 -0.082510 -0.238079
0.254025 0.151541 0.123656
-0.006086 0.075681 -0.229554
0.621919 0.390877 -0.195170
0.050692 0.755997 -0.144731
-0.549560 -0.466085 -0.264733
0.390349 -0.749777 0.066631
-0.094711 0.808661 0.104534
-0.314192 -0.052367 -0.244764
0.398705 -0.269820 -0.241637
-0.030255 0.616382 0.217370
0.142056 0.712219 -0.156700
0.423210 0.186638 0.129809
0.223042 -0.056121 0.109968
0.428288 0.420652 0.144535
0.107720 0.316709 0.265715
0.410593 -0.042091 0.115237
0.670839 -0.144569 -0.227445
-0.257704 -0.047702 -0.243150
-0.120908 0.426650 0.290343
-0.010037 0.771993 0.040600
-0.579306 -0.475368 0.057773
0.511649 -0.060183 0.116475
0.050985 -0.511257 0.077529
-0.178396 -0.175800 0.298524
0.860909 0.305869 0.147505
0.010930 -0.298935 0.089844
-0.372405 0.323097 0.119690
0.310875 -0.214625 0.307561
-0.643128 0.201024 -0.236653
-0.291194 0.376508 -0.217456
0.215371 0.494063 0.247831
0.652821 0.370340 -0.195728
0.420489 -0.110313 0.316640
0.279511 0.337227 -0.206539
0.643435 0.335191 -0.198142
-0.105983 -0.242626 0.090620
-0.463424 0.142331 -0.236107
-0.065406 0.624245 0.343537
-0.148599 -0.307840 0.098697
0.644319 0.292359 -0.200794
-0.694760 0.144528 -0.084353
0.237874 -0.422556 0.292873
-0.328303 0.421679 0.126876
-0.177707 -0.649033 0.063573
0.322972 0.052872 0.119112
0.090368 -0.134623 -0.240421
0.643355 -0.230137 -0.037877
0.390778 0.264353 -0.208481
0.460040 -0.574265 -0.259203
0.521760 0.345751 0.142049
-0.390661 0.166655 0.109497
-0.829486 -0.195265 -0.265754
0.424435 -0.672181 -0.266149
-0.384909 -0.552513 -0.184302
-0.231779 0.881829 0.021064
-0.743234 -0.393989 0.040897
0.456458 -0.528943 0.085924
-0.386627 -0.372594 -0.266448
0.421989 0.109863 -0.217393
0.381143 0.597402 -0.184517
0.515270 0.302336 -0.203194
0.116303 0.543474 0.234507
-0.392554 -0.549281 -0.177455
-0.046630 0.621276 0.259469
-0.134130 -0.326102 0.250169
0.274019 0.303229 -0.208790
-0.888206 -0.311005 -0.123146
-0.004151 0.071638 0.318050
-0.570171 -0.475354 -0.002869
0.443765 -0.158984 0.314147
-0.135555 0.788047 -0.188123
0.587387 0.495899 -0.175246
0.600969 -0.073399 0.117743
0.025148 -0.433844 -0.260626
0.062854 -0.032021 0.230439
0.055195 0.738927 0.056560
-0.412123 -0.065150 -0.247856
0.677856 0.337005 -0.197222
-0.132914 -0.545655 0.118903
-0.406608 0.026059 0.100348
-0.692292 -0.401436 -0.195389
-0.378040 -0.228070 -0.257227
-0.259040 0.492613 0.311464
0.478218 0.062606 0.123356
-0.147654 -0.159662 0.155150
0.040194 -0.653371 -0.273976
0.270896 0.646167 -0.115113
0.696167 0.379520 -0.194139
0.769792 0.393641 0.002022
-0.038862 0.705304 -0.191023
-0.410622 -0.034963 0.187045
-0.158670 0.448564 0.243576
0.023513 0.747429 0.151112
0.096863 0.264583 -0.215352
0.201381 0.405255 -0.204123
-0.376706 -0.091574 0.299135
0.323823 0.041269 0.118408
0.137154 0.034260 0.113598
0.109697 -0.372807 -0.254835
0.593442 -0.058384 -0.223878
0.227804 -0.726549 -0.274148
-0.273943 -0.608144 -0.165513
-0.056795 -0.643171 0.066771
0.490872 0.493865 0.150571
-0.012515 -0.298201 -0.253042
-0.363029 0.803162 0.149874
-0.023204 -0.338592 0.086569
-0.562759 0.257022 0.111106
0.229349 0.256263 0.279137
0.499630 -0.100127 0.219753
-0.293419 0.915883 -0.032036
0.250141 0.480602 0.199958
0.190468 -0.646836 -0.270047
0.274974 -0.891700 0.040680
0.157679 -0.605182 0.279595
0.238397 -0.068522 0.109554
0.259740 -0.401524 0.294698
0.776872 0.396616 -0.085108
0.201087 0.075482 0.117668
-0.424017 0.361619 -0.221497
0.135508 0.157636 -0.221122
0.453899 -0.082580 0.284842
-0.213120 0.536242 0.342154
0.605340 0.235436 0.137122
0.270218 0.110842 -0.220887
0.122716 0.287970 -0.213287
0.023468 0.586529 0.265990
0.165014 -0.697270 0.199849
0.274108 -0.890808 0.034333
0.126760 0.617553 -0.192620
-0.302581 -0.289855 -0.259315
-0.164516 -0.287723 -0.255948
-0.618151 -0.155536 0.084058
0.063603 -0.028554 0.187233
-0.499806 0.231714 -0.231380
-0.715069 -0.078469 -0.255784
0.103187 -0.015152 0.109718
-0.240582 0.733670 0.148404
-0.682785 -0.238035 -0.264987
-0.682504 -0.404309 -0.221273
0.388041 -0.540056 0.083627
0.452107 -0.245196 -0.238849
0.060036 0.257007 -0.216687
0.212603 0.267062 0.243759
-0.469017 -0.276361 0.263636
-0.045456 -0.125363 0.172407
0.106874 -0.803918 -0.035272
-0.228504 -0.318374 0.083022
-0.561173 0.349837 0.116937
-0.188584 0.383743 0.127781
-0.270828 0.423167 -0.214067
-0.095240 -0.663519 -0.277781
-0.145127 -0.562814 0.069718
-0.243632 -0.066089 -0.243968
-0.794197 -0.284042 -0.270469
-0.196270 -0.659589 0.016923
0.330436 -0.415480 -0.252328
-0.449538 0.612697 0.135959
-0.258084 -0.628561 0.005940
-0.210159 0.701923 0.249866
-0.506283 -0.071806 0.258076
0.226380 -0.731024 0.273350
0.001804 -0.741127 -0.190016
-0.328718 0.791968 -0.192403
-0.587466 -0.024238 -0.249410
-0.103377 0.655059 0.177652
0.479468 0.111998 0.126468
0.588115 0.472158 0.141346
0.224854 0.268132 0.148198
0.080572 -0.736772 -0.278235
0.083511 -0.788255 -0.092714
-0.306326 -0.260463 -0.257569
0.396862 0.538271 0.151140
-0.733129 -0.393625 -0.030904
-0.063223 -0.648755 -0.276110
0.349819 0.431009 0.211715
0.555938 0.210824 0.134428
-0.558801 -0.457862 0.066578
0.117694 0.237181 -0.216574
0.133718 -0.803397 -0.219975
0.433887 0.051238 0.121608
-0.759987 -0.374999 -0.105312
0.692990 0.436013 -0.063354
0.269744 -0.546071 0.285910
0.613673 0.468890 0.016458
-0.339277 0.870862 0.030303
-0.604964 0.325630 0.108686
-0.232877 0.455485 -0.211161
0.849464 0.346003 0.119690
0.461329 0.218658 -0.209681
0.159057 -0.446769 0.198661
0.703544 0.009465 -0.217064
-0.061697 -0.587722 0.219712
0.198836 -0.277828 -0.246819
0.424506 0.106618 0.124845
-0.658942 -0.156271 0.083057
0.433656 -0.545395 -0.258019
0.115866 0.718014 -0.061821
-0.164021 0.378495 0.128029
-0.041179 0.327392 0.127717
-0.234761 -0.494456 0.099769
0.081599 0.432814 0.342602
-0.156649 -0.315002 0.218082
0.473597 -0.081156 0.135212
0.910390 0.317086 -0.063068
-0.158521 0.054810 0.134594
0.130180 0.537183 0.227845
-0.062322 0.808721 -0.110611
-0.182989 0.129242 0.112027
0.363132 -0.036845 0.266350
0.011414 -0.106004 0.177002
0.190051 0.565081 -0.194413
-0.575459 0.215957 0.108246
0.203902 0.592923 -0.192351
0.065252 -0.039594 0.234791
-0.515890 -0.075590 0.266753
-0.073395 -0.692058 0.063331
0.069814 -0.547191 -0.266654
-0.125392 -0.352611 0.288729
0.200190 0.103375 0.119388
-0.111797 -0.680158 -0.263619
-0.319476 -0.016896 0.305137
0.444825 -0.329969 0.287029
-0.040800 -0.120580 0.113927
0.498244 -0.526816 -0.072076
0.234345 -0.126815 0.105820
-0.606569 -0.303155 -0.267266
-0.191044 -0.384342 0.141984
-0.490632 -0.310499 0.077373
-0.089931 -0.572512 0.198033
-0.611625 0.130607 0.102071
0.103089 0.163550 0.120870
-0.036381 -0.170905 0.096727
0.518477 -0.427615 -0.248681
0.117346 0.627957 0.150190
-0.494714 0.146406 -0.236586
-0.524802 -0.134289 -0.254811
0.247707 0.472762 0.322212
-0.209100 0.873292 -0.013444
-0.372482 -0.025538 0.255593
0.773031 0.403269 -0.149755
0.019059 0.086106 0.305302
-0.177427 -0.433056 -0.265322
-0.816651 -0.103702 -0.180656
0.033622 -0.768150 -0.034736
0.270903 0.631387 0.084927
0.211312 -0.050204 0.110063
-0.358838 -0.208233 -0.255539
-0.255089 0.873875 0.156816
-0.501324 -0.250203 -0.261496
0.057491 -0.291678 0.091387
0.512341 0.024697 -0.220592
-0.010680 0.318844 0.127898
-0.593402 -0.342031 -0.269384
-0.002679 0.729249 -0.188681
0.285592 0.147479 -0.218240
-0.088105 -0.714565 0.045381
0.102497 0.185054 0.122198
0.015630 0.591819 0.246245
-0.149117 -0.653216 -0.278400
0.065431 -0.627630 -0.271778
-0.693372 0.147418 -0.087730
0.248930 0.621537 0.152872
0.646481 0.145681 0.132483
-0.149777 -0.286685 -0.255538
0.425389 0.256165 0.134200
-0.309984 -0.315936 -0.261117
0.051144 -0.554991 -0.267578
0.040983 0.033686 0.216507
0.775325 0.185788 -0.204377
0.003980 -0.522264 -0.266641
-0.234219 -0.409729 0.077186
0.612971 0.449204 -0.191739
-0.386257 0.254832 -0.227278
-0.027308 -0.301697 -0.253606
-0.051062 0.653302 0.147828
0.325297 -0.040785 -0.229061
-0.336700 0.876350 0.015795
-0.572277 0.176630 -0.236516
0.224423 0.484713 -0.198624
-0.125769 -0.172142 0.094556
0.170449 -0.691237 0.082219
0.631045 -0.160057 -0.229344
0.377081 0.540727 0.150830
-0.218297 0.034119 0.136075
0.176447 -0.410463 0.150699
-0.370887 0.513272 0.131595
-0.245569 -0.497712 0.260218
-0.031685 -0.122080 0.199373
0.381902 -0.458467 0.088576
0.856710 0.345609 0.077068
-0.640340 -0.385147 0.069207
0.595140 -0.255454 -0.236139
0.030501 0.066925 0.196478
-0.474696 0.510295 -0.213404
-0.403027 0.393561 0.123371
0.572491 0.098201 0.127786
0.207824 -0.718389 0.202461
-0.835904 -0.204612 -0.266488
0.307911 -0.143270 0.291422
-0.439294 0.514301 -0.212325
-0.012092 -0.248120 -0.249906
-0.063667 0.030735 -0.233709
0.054768 0.348204 -0.211119
0.260973 -0.743467 -0.274427
-0.028039 -0.660904 0.066338
-0.787143 -0.100579 -0.258852
-0.424588 -0.380279 0.074565
-0.122679 0.249195 -0.221455
-0.189242 -0.528901 0.264840
-0.648603 -0.187168 0.081370
-0.165343 -0.015675 -0.238987
-0.107858 -0.685083 -0.223009
-0.507635 -0.005764 0.095995
-0.225474 0.131549 -0.231206
-0.641877 0.127255 -0.241228
-0.067040 0.232186 -0.221214
-0.339501 -0.513929 -0.274166
0.485476 -0.189531 -0.234593
-0.109178 -0.680614 -0.274788
0.172926 -0.132988 0.103996
-0.240984 -0.503585 0.264532
-0.749577 -0.255408 -0.267636
-0.572737 -0.214741 -0.260955
-0.591891 -0.225283 0.187644
-0.053991 0.091523 0.122216
-0.077398 -0.365664 -0.258772
0.468265 0.542148 -0.013044
0.057999 -0.779738 -0.039176
-0.192783 -0.182609 0.291077
0.483288 0.103952 -0.216326
-0.040357 0.225112 -0.221030
0.413839 0.575840 -0.108978
0.745773 0.354477 -0.194540
-0.071491 -0.583939 0.230702
0.279587 0.482974 -0.197440
-0.124037 0.529066 0.343793
0.333296 -0.440739 -0.253838
-0.297012 0.522788 0.154238
-0.367226 -0.556645 -0.245370
0.522058 -0.083626 -0.227126
-0.155704 0.056092 0.128860
-0.161941 0.256148 -0.221941
0.243379 0.258919 0.150334
0.493644 -0.003808 0.119572
0.418447 0.570897 -0.072567
0.504031 -0.109549 0.318190
0.015799 0.331552 0.129311
-0.329608 0.106525 -0.235208
-0.711068 0.092537 0.097366
-0.321335 -0.104787 0.299608
-0.239042 0.151793 -0.230261
0.155054 -0.503035 -0.261901
-0.053609 -0.684398 -0.278109
0.517453 -0.175718 -0.232982
0.502455 0.520309 0.056354
-0.487890 0.466517 0.125936
0.004842 -0.259105 0.092187
0.361431 -0.089526 0.316554
-0.012673 -0.373754 0.091506
-0.347293 0.342365 -0.220901
-0.551382 0.231520 -0.232601
-0.113773 -0.333791 0.219540
-0.511465 0.517082 0.110388
-0.046014 0.614328 0.349448
-0.324306 0.561079 -0.206711
0.466642 0.489998 0.149762
-0.080750 0.320655 0.126369
-0.070690 -0.033461 -0.237880
0.442372 -0.378354 -0.247389
-0.056149 0.405663 0.145906
-0.444267 0.450302 -0.216436
-0.081022 0.822377 -0.171739
0.078965 -0.078884 0.106542
-0.606994 -0.170345 0.104917
-0.317591 0.432998 0.127833
-0.332444 -0.004393 0.120518
-0.542350 -0.411590 0.069852
-0.312166 -0.334569 -0.262331
0.646133 0.129256 -0.210932
0.298946 0.218099 0.128862
0.269008 -0.022187 0.113163
-0.530980 -0.163257 -0.256764
-0.112113 0.365729 -0.213934
0.720309 0.424271 -0.085175
0.051116 0.310989 -0.213527
0.889522 0.346887 -0.157370
0.285857 -0.449693 0.292303
-0.427806 0.125773 0.106075
0.370286 0.577908 0.151237
-0.219939 -0.395515 -0.263974
-0.088497 -0.537826 0.278033
0.483047 -0.092953 0.232378
0.716990 0.001933 0.125162
-0.215463 -0.030634 -0.241095
0.238808 0.664695 -0.153587
0.127084 -0.233992 -0.245764
0.294076 -0.891300 -0.091153
0.026349 -0.749734 -0.235917
0.599985 -0.073697 -0.224681
0.099431 -0.330202 0.089965
-0.356298 0.680125 -0.200030
-0.533240 -0.477454 -0.218834
-0.571988 0.394992 -0.017896
0.507919 0.273117 0.137192
0.001937 0.767512 0.022017
-0.166837 0.051758 0.137987
0.202755 -0.278239 0.095629
-0.337307 0.042513 0.102999
-0.621044 -0.128923 0.101976
-0.907189 -0.292346 0.043067
0.377518 -0.035678 0.155365
0.894489 0.330135 0.036540
-0.019133 0.574471 -0.198727
-0.057177 0.655337 0.147811
-0.019384 0.449362 0.341269
-0.515733 0.041774 0.098773
-0.278468 -0.030540 -0.242565
0.121280 -0.582247 -0.267637
0.552966 0.378261 0.144809
-0.521392 -0.481719 -0.239497
-0.742832 -0.379849 -0.153184
-0.420481 0.602026 0.135973
0.370013 -0.789782 -0.047057
0.586396 -0.259191 -0.236577
0.468457 -0.423735 0.092772
-0.823866 -0.342931 -0.116718
-0.010408 0.771253 0.053068
-0.204016 -0.183484 0.235908
0.165621 0.613186 0.150399
-0.094562 0.337655 -0.215275
-0.250635 0.487656 0.322947
-0.521467 -0.104133 0.294961
-0.496192 0.356115 0.118851
-0.424453 -0.255919 0.170207
-0.028562 0.777288 0.091505
0.158685 -0.416771 0.085950
-0.010215 -0.748627 -0.008939
0.106948 0.720204 -0.032454
0.579224 0.162975 -0.210395
0.681244 0.438132 -0.014307
0.303062 0.615149 -0.188640
-0.613773 -0.289875 -0.266606
-0.048314 0.083841 0.299608
0.293883 0.297122 0.154858
-0.332674 0.886648 -0.126361
0.273446 0.079572 -0.222763
-0.186222 0.494685 0.340190
-0.021239 -0.370188 0.099927
-0.197467 -0.202356 -0.251392
-0.112575 -0.682870 -0.221755
0.899408 0.338260 -0.191954
0.706870 0.047911 -0.214587
-0.381028 0.076777 -0.238269
0.695846 -0.011612 0.123822
-0.492936 -0.295587 0.078250
-0.496351 -0.283467 0.220971
0.170423 0.286199 0.263810
-0.089784 0.640834 0.280281
0.523401 0.501880 -0.190549
-0.112173 -0.688058 -0.154193
0.832930 0.157247 0.020626
0.215415 0.097276 0.119364
-0.753576 -0.388160 0.030432
-0.493484 -0.515086 0.027534
0.383735 -0.601829 0.079671
-0.344432 0.098418 0.106321
-0.171662 -0.340615 -0.259417
-0.636495 0.057388 -0.245463
-0.705736 -0.001332 0.091631
-0.355437 -0.049471 -0.245549
0.091518 0.174216 -0.221118
0.087336 -0.123184 0.102603
-0.074833 -0.301735 0.087660
0.071608 -0.670550 -0.274312
-0.822699 -0.336958 -0.205296
-0.367217 0.661313 -0.201460
0.341334 -0.536206 -0.259608
0.187725 0.577063 0.148662
-0.382554 -0.560032 -0.098095
0.115732 -0.795273 -0.210917
-0.308004 0.154693 -0.231695
0.161352 -0.685887 0.069980
-0.194576 0.863196 0.027117
-0.618397 -0.370051 0.070663
-0.024589 0.582008 -0.198384
-0.046285 -0.733837 0.029537
0.346448 0.436542 0.159122
-0.142615 0.445330 0.181115
0.055401 -0.073150 0.310407
0.771118 0.029283 0.116050
0.246683 0.488933 -0.197839
-0.525410 -0.060910 -0.250245
0.756758 0.407695 -0.101982
-0.678029 -0.128283 -0.258025
0.075032 -0.395636 -0.257072
0.003112 -0.110770 0.212018
-0.095411 0.569015 0.346957
0.853782 0.365754 -0.176265
-0.811017 -0.092487 -0.158248
-0.171894 -0.670100 -0.002085
-0.565895 0.320884 0.115019
0.086870 -0.456885 -0.260618
-0.332416 -0.405470 -0.267231
0.597412 -0.167080 0.111812
0.174711 0.540661 -0.196296
-0.174594 -0.172849 0.226883
0.476402 0.537949 -0.010038
0.484619 0.527491 0.077157
-0.045586 -0.366031 -0.258050
0.105015 -0.796833 -0.118881
-0.004716 0.019223 -0.233046
0.150936 -0.569017 -0.266116
-0.288727 0.516866 0.179583
-0.296306 -0.604258 -0.070134
0.191341 -0.616994 -0.268164
0.108305 -0.457572 -0.260159
0.276697 -0.671195 0.073645
-0.078789 0.568744 -0.200482
-0.725634 -0.399758 0.002526
0.081531 -0.518502 0.077793
0.242906 0.531420 0.147106
0.344615 -0.463299 -0.254981
0.149249 -0.062753 0.107826
0.001547 -0.562776 0.073156
-0.253833 0.036232 0.104562
-0.566335 0.069210 0.099300
-0.040447 -0.641291 -0.275111
0.507166 0.513055 0.123377
-0.745715 -0.335545 -0.272548
-0.298693 0.472307 0.130730
0.244188 0.621149 0.152737
0.228678 -0.375851 0.295573
-0.342730 0.686216 0.143050
-0.134370 -0.320489 0.175771
0.159521 -0.695514 0.212432
-0.098950 -0.428914 0.284586
-0.369282 0.177785 -0.231689
0.013338 0.619235 -0.195172
-0.537592 -0.322997 0.075493
-0.635976 0.204413 0.106108
-0.691652 0.121929 0.099655
0.304425 0.454673 0.191752
-0.647951 0.007236 0.093520
-0.141761 -0.548250 0.212572
-0.301961 0.294401 0.119549
0.053390 0.347436 0.209287
0.586541 0.033050 -0.218333
0.240866 0.135636 0.122355
-0.056810 -0.096729 -0.241504
0.308980 0.175841 -0.215922
-0.163518 0.676308 0.287981
0.258289 0.244324 0.249235
0.023454 0.757522 0.014869
0.612846 -0.073184 0.118034
-0.204273 -0.147523 0.299682
-0.137677 0.799236 0.154907
0.190607 -0.848606 0.015593
0.032590 0.053991 0.248692
0.080636 0.322779 -0.212100
-0.147374 0.671876 0.241153
-0.094243 0.339101 0.127204
-0.061470 0.777507 0.155336
0.649703 0.460667 -0.110656
-0.247625 0.403946 0.127659
-0.478076 0.372107 -0.222108
-0.709013 -0.084573 -0.256023
0.544845 -0.122858 0.228267
-0.309197 0.556473 -0.206645
-0.151419 -0.165090 0.231142
0.508439 -0.106715 0.250649
0.454230 0.116490 0.126158
-0.387819 0.721105 -0.198211
-0.283376 0.763878 0.149287
0.005335 0.779267 -0.159598
-0.228289 0.285779 -0.221646
-0.455740 -0.359616 -0.267257
0.349512 0.303125 0.135354
-0.193378 -0.210310 0.090590
0.163981 -0.234327 0.097462
0.190781 -0.409319 0.292596
-0.502022 0.358999 -0.223488
-0.250063 -0.055990 0.304323
-0.132752 -0.159539 0.247438
-0.279220 -0.238575 0.086815
0.334531 0.618615 -0.163237
-0.007922 0.041340 -0.231741
-0.220772 0.866893 0.150423
-0.181806 -0.382068 -0.262242
0.146940 0.524191 0.292807
-0.070609 -0.332381 0.085846
0.125866 -0.513070 0.083003
0.600906 0.124473 -0.212290
-0.601369 -0.207717 0.264980
-0.116501 -0.204581 0.092748
0.154101 0.532348 -0.197298
-0.037546 0.450483 0.340914
-0.067165 0.636950 -0.195952
-0.301527 -0.586951 -0.269873
-0.404267 -0.155125 -0.253288
-0.652120 -0.124701 -0.257195
-0.523620 -0.121059 -0.253957
-0.252029 0.897828 -0.061513
0.066299 0.560041 0.341142
0.061435 0.359716 -0.210244
-0.633292 -0.402290 0.068302
-0.516983 -0.287556 0.165310
0.510906 -0.153598 -0.231755
-0.054246 -0.171583 0.096266
-0.090880 0.393924 0.130705
-0.462084 -0.511831 -0.224329
0.399989 0.246271 -0.209394
-0.532124 -0.481938 -0.165510
0.699732 0.421346 0.090589
-0.564204 0.003675 0.095259
0.460123 0.020655 -0.222068
-0.329015 0.247663 -0.226384
0.398654 -0.557585 -0.259600
-0.312498 -0.271411 0.083985
-0.003802 -0.654903 0.067280
-0.206197 0.869656 0.016565
0.082664 0.336011 0.170233
-0.091610 0.639682 0.307952
0.839373 0.336177 0.148892
-0.018387 -0.373107 0.120564
-0.131782 -0.317652 0.120234
-0.079843 -0.394523 -0.260631
0.415723 -0.085303 -0.229722
0.216300 0.657696 0.090106
0.124502 0.700921 0.112423
0.496102 -0.102836 0.279780
0.130541 -0.798613 -0.263705
-0.032036 -0.526724 0.280048
-0.460162 0.018310 0.098610
0.425379 -0.309897 0.304297
0.088296 0.490101 -0.201476
0.253930 0.018126 0.115326
0.526208 -0.406184 0.095220
0.309910 -0.292855 0.302656
0.036780 0.747678 0.059956
0.396976 0.581076 -0.068273
-0.872137 -0.325599 -0.031914
-0.105526 -0.033251 0.309128
-0.339106 0.224538 -0.228064
-0.331047 -0.586999 -0.073871
0.044808 -0.733511 -0.278870
0.332157 0.255519 -0.210406
0.241561 0.644579 0.100506
0.380388 0.015203 0.118106
-0.093028 0.698435 0.149662
0.082870 0.224518 0.124201
-0.175042 0.042987 0.247333
0.593218 0.128353 -0.212228
-0.231331 0.237483 -0.224731
0.489847 0.102406 -0.216269
-0.262402 -0.177835 -0.251382
-0.233051 0.695597 -0.196177
0.197788 0.368992 0.341340
0.229033 -0.398668 -0.253654
0.225883 -0.724889 0.170941
0.025039 -0.078933 0.309335
0.373743 0.046410 0.119898
-0.318862 -0.589360 -0.122541
-0.482920 -0.063485 0.253183
-0.631285 -0.283766 0.075747
0.867137 0.324315 -0.193580
0.270229 -0.290354 0.301882
0.861520 0.363016 -0.190415
0.248014 -0.110954 -0.235251
0.279928 -0.886414 -0.063676
-0.257728 -0.511343 0.070293
-0.280227 0.203636 0.114392
-0.178121 0.852552 0.062326
-0.274037 0.897679 0.086143
0.008902 0.383446 -0.209993
0.341927 0.612000 -0.122631
0.520463 0.506314 0.126639
0.425083 -0.249690 0.308048
0.104395 -0.191720 0.098725
-0.591668 -0.091542 -0.253709
-0.629612 0.253640 0.109329
0.393172 0.081267 0.122529
0.216712 -0.152674 -0.238589
0.088544 0.501035 -0.200788
0.720378 0.416971 0.013184
-0.287839 -0.618119 0.061493
-0.116366 -0.269141 -0.253660
-0.829139 -0.293287 0.070518
-0.596273 0.069677 -0.243754
-0.525104 -0.306782 -0.265584
-0.252984 -0.610598 -0.270987
-0.138144 -0.012762 0.309643
0.651140 0.198980 -0.206463
0.014486 0.762598 0.005504
0.442642 0.560847 -0.188760
-0.526414 -0.044674 0.093127
-0.246761 0.140603 0.111242
0.145472 -0.282921 0.093995
-0.302438 0.353688 0.123238
0.181480 -0.487991 -0.260343
-0.239576 -0.639185 0.027285
-0.211347 -0.634356 -0.224895
-0.175633 -0.056229 -0.241759
-0.521734 -0.096161 0.295452
0.350729 0.589186 0.127985
0.367805 0.052818 -0.222223
0.457613 0.069603 -0.219072
-0.092940 0.063826 0.315482
0.047134 0.007170 0.281839
-0.107451 -0.186901 -0.248318
0.241288 -0.857000 -0.206161
0.429114 0.481436 -0.194034
0.318884 -0.517717 0.288831
-0.070824 0.085689 0.122787
-0.558423 0.251897 0.110888
0.057956 -0.094039 0.252109
0.254310 0.186561 0.125848
0.065321 0.415814 -0.206651
-0.757960 -0.184766 -0.263423
0.077455 0.007971 0.110558
-0.299216 0.519484 0.213552
0.476058 -0.413124 0.093612
-0.087018 -0.180959 -0.247469
-0.015730 0.181930 0.119233
0.160311 0.697246 -0.074793
0.036769 0.575757 0.323792
0.362769 0.586114 0.089892
-0.018190 -0.514160 0.075728
0.166464 0.613349 -0.191953
-0.607136 -0.255319 0.078088
0.480403 0.489088 -0.192355
0.279082 -0.700899 -0.271346
-0.264587 0.706539 0.351578
-0.290186 0.912707 -0.010431
-0.438527 0.225410 -0.230339
-0.217849 0.875915 0.008945
0.028222 0.080224 0.145704
-0.743653 -0.286384 -0.269431
-0.324925 0.750603 -0.194896
-0.475550 -0.517619 -0.056854
-0.602426 0.256947 0.110173
-0.365434 -0.091675 0.299393
0.417059 0.221233 -0.210557
-0.180646 -0.073746 -0.242970
-0.105396 0.443794 0.338907
0.746494 0.015180 -0.215702
-0.103509 0.506609 0.342872
-0.029091 -0.373943 -0.258157
0.065121 0.097735 0.115872
-0.328115 -0.592698 -0.016125
-0.051557 0.399396 0.200359
-0.131670 0.832647 0.024394
-0.151515 -0.353549 0.288059
-0.234015 -0.193474 0.229413
0.890969 0.345316 -0.145676
0.440487 -0.319612 -0.243766
0.128275 -0.704290 0.067291
0.254203 0.654973 -0.123862
-0.502332 -0.135996 -0.254391
-0.137203 0.582590 -0.200986
0.242117 0.584367 0.150392
0.116313 -0.803121 -0.108536
-0.343298 0.666039 0.141777
-0.186219 0.854110 0.094814
0.203896 0.588815 0.149775
0.406072 0.062128 0.121636
0.784849 0.337457 0.147694
0.411573 -0.195354 0.311123
-0.036256 0.688256 0.150356
-0.441765 0.504181 -0.213014
-0.565805 -0.293839 0.129255
0.105905 -0.791343 -0.199104
0.164915 -0.433140 0.085757
-0.501110 -0.404386 0.071267
-0.442550 -0.197519 0.290980
-0.601708 -0.263494 0.077705
-0.446509 -0.071281 0.298767
-0.721212 -0.382587 -0.259186
0.607194 0.464066 0.124627
-0.779761 -0.084818 0.084686
0.017808 0.750070 0.153116
0.170026 0.464996 0.346682
0.051311 0.712332 -0.188472
0.317486 0.029457 -0.224860
-0.111800 -0.148667 0.180301
-0.311197 0.778744 -0.192818
0.302132 -0.777661 -0.275598
0.180880 -0.616514 -0.268379
0.342454 0.606109 -0.046357
-0.688722 -0.413196 -0.059821
-0.594932 -0.436623 0.067057
0.257676 0.511860 -0.196151
0.396042 0.111129 -0.217922
-0.380400 0.352395 -0.221051
-0.737837 -0.008115 0.090456
-0.718259 -0.213431 -0.264282
0.210877 -0.253728 0.097349
0.226183 0.101341 0.119870
-0.759392 -0.280015 -0.269402
0.583497 0.169702 -0.209875
-0.159200 0.581910 0.346267
-0.736549 -0.011224 -0.252090
0.317849 -0.797404 -0.276462
0.354650 0.061891 0.120417
0.304239 -0.522848 -0.259644
-0.587011 -0.461390 -0.080459
0.061002 -0.014169 0.135356
-0.537491 -0.247935 0.285609
0.039080 -0.768908 -0.060586
0.665353 0.187780 0.135553
-0.176780 0.783327 0.152998
-0.416095 0.328397 0.118997
-0.694544 -0.042976 0.089294
0.908084 0.320327 0.079354
0.285439 -0.350681 0.298473
0.344814 -0.519147 -0.258462
-0.133958 0.840945 -0.072793
0.635378 0.456393 -0.190765
-0.171667 -0.525710 0.105341
-0.204205 -0.638257 -0.219354
0.323339 0.274527 0.132956
-0.115828 0.090166 -0.231221
-0.068783 -0.068288 -0.240009
-0.387477 -0.394013 0.074577
-0.113311 0.311097 0.125010
-0.752882 -0.015019 -0.252709
-0.715902 -0.184155 0.079982
0.274871 0.243116 -0.212522
-0.466410 0.500355 0.128552
0.303642 -0.152285 0.310265
0.389204 0.580328 -0.006722
0.351711 -0.305853 -0.244987
0.233642 -0.137181 0.105157
-0.503741 -0.451662 0.068255
0.074453 0.724777 0.120677
0.412789 -0.403053 0.092758
0.594720 -0.121367 -0.227780
0.483003 -0.098501 0.307783
-0.201130 0.569257 -0.203315
-0.545021 -0.154714 -0.256559
0.482209 -0.090146 0.199930
0.618771 0.245984 0.138095
0.264523 -0.697771 0.276319
-0.511335 -0.392764 -0.270629
0.149990 -0.804708 -0.280850
-0.560068 -0.087367 0.203168
0.592986 0.003939 -0.219999
-0.324515 -0.595920 0.003670
-0.198096 0.554859 -0.204143
-0.239875 0.120394 0.110142
-0.137241 -0.286212 0.087167
-0.068738 -0.213161 -0.249051
-0.511487 -0.064785 0.095852
-0.681125 -0.303647 0.073338
-0.525678 -0.490522 -0.091966
0.074702 0.730996 0.034834
-0.436210 0.402347 0.123142
0.556245 0.437780 0.148601
-0.565061 0.067603 -0.243152
-0.779457 -0.295251 -0.270823
0.322056 0.004471 0.116070
0.750035 0.393650 0.132639
-0.632455 -0.425187 -0.269835
0.458901 0.381902 0.142833
-0.115128 0.819601 0.091546
-0.260397 0.816754 0.153126
0.693589 0.426463 0.061959
0.169564 0.683986 0.043486
-0.138958 0.430875 -0.210497
0.511044 -0.325831 0.099880
-0.357731 0.662784 -0.201146
0.330599 0.364211 0.138724
-0.486097 0.311656 -0.226070
0.092013 -0.640234 -0.271942
-0.259021 -0.329191 -0.260750
-0.654283 -0.439158 0.063744
-0.080829 -0.597588 0.069053
-0.326824 0.668421 -0.200070
-0.030401 0.790043 -0.068998
-0.308099 0.867402 0.155170
0.335901 0.496627 -0.195269
0.427420 -0.197427 0.311365
-0.361834 -0.271714 0.082811
0.541462 -0.187902 -0.233180
-0.309234 -0.172813 -0.252166
0.683325 0.075649 0.128975
-0.095195 0.363732 -0.213662
-0.225440 0.888925 -0.116943
0.085996 0.730055 -0.027162
-0.566098 -0.324637 0.074723
-0.429180 0.295246 -0.225761
-0.371784 0.773765 0.147834
-0.301023 -0.215677 0.212821
0.267534 -0.219224 0.100830
0.192889 -0.710751 0.197883
0.331403 -0.478925 -0.256266
-0.163600 0.256376 0.120416
0.093376 0.504882 -0.200435
-0.391917 0.408702 0.124576
0.307408 -0.142516 0.167895
-0.030150 -0.523704 0.260269
0.238222 0.420547 0.345505
-0.403640 0.120554 -0.236066
-0.485695 0.004035 -0.245261
-0.164095 0.561844 -0.202911
0.024573 -0.179289 0.097631
0.807528 0.316758 -0.195448
0.081947 0.217856 0.123764
0.024941 0.579730 0.348282
-0.547725 -0.473575 -0.175494
0.133727 -0.812043 -0.102976
-0.334620 0.080205 0.105414
-0.221551 -0.640478 -0.074490
0.209394 0.145480 0.122232
-0.440487 -0.524514 -0.195541
-0.371989 -0.020923 0.173804
-0.417800 0.311065 0.117875
0.356474 0.429945 -0.198949
-0.112869 -0.151775 0.230715
0.192626 0.436761 -0.202362
-0.000540 -0.148267 -0.243403
-0.420963 -0.070080 -0.248371
-0.325584 -0.252756 -0.257539
0.238292 -0.727625 0.125867
-0.565060 -0.438036 0.067669
0.062986 -0.260445 -0.248916
-0.061148 -0.354772 0.155326
0.532387 0.201114 0.133270
-0.558128 0.046011 0.098044
0.294152 0.325296 -0.206941
-0.170084 -0.583301 0.067854
-0.027358 0.284101 -0.217044
-0.197749 0.074654 0.108274
-0.407227 -0.453673 -0.271992
0.008560 -0.225876 0.094348
-0.593988 -0.207673 0.099854
0.023669 -0.107594 0.284008
-0.083974 -0.571008 0.138250
0.361218 0.438271 0.144063
-0.151096 0.855430 -0.155477
0.065801 -0.322324 0.089669
-0.309702 0.744934 0.147488
-0.029903 -0.038095 0.310597
-0.858275 -0.305336 -0.273299
-0.247370 0.151182 -0.230494
0.382049 -0.007465 -0.225652
-0.179386 -0.265658 -0.254919
0.859880 0.278725 -0.196596
-0.611924 -0.454718 -0.005929
0.379075 -0.769952 -0.135082
0.098368 -0.595805 -0.269020
-0.477512 0.008806 -0.244772
-0.150526 -0.185540 0.093139
-0.684253 0.165842 -0.070302
-0.277666 0.072525 0.106269
-0.026245 0.381583 0.336878
0.412665 0.416135 0.143887
0.432212 0.407590 -0.198570
-0.389183 -0.331467 -0.263941
-0.297785 0.235078 -0.226438
-0.155693 -0.311406 0.104633
0.448809 0.199801 -0.211151
0.250910 0.659770 -0.167004
-0.014856 0.382908 0.180696
-0.600418 -0.102070 0.217713
-0.489373 -0.256743 0.286187
-0.726888 -0.171845 0.080493
-0.115304 -0.151761 0.215012
-0.205424 0.316568 0.123194
0.555303 0.465992 0.150340
-0.284106 0.696251 0.145049
0.241158 0.496421 0.144881
-0.431250 0.599359 0.135555
0.116626 0.047612 -0.228432
0.257941 -0.365160 0.296925
-0.451707 -0.357552 -0.267034
0.060376 -0.087604 0.149060
-0.292647 0.260677 0.117662
-0.339811 0.302737 0.119182
0.158019 0.524987 0.208718
-0.011962 0.102194 0.192517
-0.221523 0.391459 0.127491
0.363605 -0.802924 -0.045654
0.336983 0.032501 0.118169
-0.404700 -0.002735 -0.243786
-0.884285 -0.317057 -0.067166
0.233446 0.082901 -0.223493
0.426306 0.396975 0.143011
0.035526 0.765014 -0.166438
0.303968 -0.326975 0.300387
0.766959 0.061012 -0.212361
-0.717472 -0.383658 -0.269439
0.355449 0.375885 0.140034
-0.482203 -0.281935 0.282555
-0.230111 0.863495 0.156753
0.693357 -0.055630 -0.221366
0.074702 0.385486 -0.208325
-0.360696 -0.090491 0.299578
-0.330626 0.891428 -0.166978
0.117715 -0.529772 0.083678
0.339367 0.293613 0.134522
0.243644 -0.737852 0.228894
-0.343164 -0.012397 0.199800
-0.903617 -0.283593 -0.056421
-0.615490 0.145398 -0.239478
-0.647836 -0.423324 -0.193276
0.114673 0.308976 0.335647
0.600253 0.486107 -0.127814
0.313687 0.626081 -0.126361
0.368402 -0.078172 -0.230385
0.423663 0.551978 0.149040
-0.146727 -0.147151 -0.246757
-0.284669 -0.212273 0.253942
0.233853 -0.723237 -0.273800
0.734484 0.076369 0.130218
0.136300 0.714620 -0.151102
-0.096794 -0.034425 0.309259
0.744989 0.396108 0.132753
0.196000 -0.832268 -0.241279
0.176029 0.674597 0.127805
-0.242608 0.785866 -0.190767
-0.425432 -0.259636 0.232404
-0.599991 0.107311 0.100890
-0.342367 -0.583271 -0.049435
0.588963 0.398108 -0.195490
0.246240 -0.152424 0.104501
-0.709188 -0.391436 -0.218967
-0.305756 -0.462284 -0.270152
-0.549313 0.444334 -0.219122
-0.741498 -0.396428 0.062433
-0.809489 -0.087972 -0.254258
0.651105 0.446224 0.075593
0.330980 -0.023941 0.114505
0.173564 -0.095752 0.106336
0.165623 -0.707097 -0.274391
-0.288419 0.659646 0.302911
-0.298581 0.052634 -0.237844
0.178348 -0.329141 -0.250502
-0.561911 0.201845 0.107682
0.511494 0.342272 -0.200790
-0.129878 -0.158778 0.251662
0.039730 -0.754465 -0.260417
-0.433856 -0.524110 -0.244899
0.174229 -0.619974 -0.268751
0.469222 -0.270207 -0.240010
0.686269 0.433210 0.019064
-0.350613 0.643585 0.140204
-0.404768 0.414984 0.124667
-0.447695 -0.025276 -0.246200
0.390117 0.590529 -0.150850
0.388507 0.398765 -0.200145
0.232501 -0.320913 -0.248720
-0.242697 -0.623984 -0.157847
-0.258855 -0.628827 0.014640
0.187354 0.282677 0.199452
-0.548194 0.087621 0.100874
-0.684552 -0.243095 0.077038
0.840524 0.252439 0.143692
-0.444706 -0.177045 -0.255603
0.322374 -0.111067 0.112461
0.061503 0.391972 0.339582
-0.632795 0.201516 -0.236381
0.300346 0.629716 -0.087289
-0.353270 0.629537 -0.203117
-0.025034 0.341187 0.128956
-0.752146 -0.386200 -0.005563
-0.179723 0.836440 -0.186137
-0.141496 -0.550841 0.245894
-0.075462 0.556842 -0.201147
-0.360285 0.075748 0.104535
-0.295895 -0.603943 -0.077107
-0.219889 -0.218110 0.089482
-0.179086 -0.023593 0.308008
0.444381 0.452773 -0.195465
-0.077452 -0.574452 0.141718
-0.587029 -0.186605 0.288277
-0.019576 0.388604 0.132043
0.562136 -0.341205 -0.242265
-0.456983 -0.442230 -0.272443
-0.202205 -0.646634 -0.119173
0.209185 -0.280310 -0.246732
-0.179469 -0.322497 -0.258469
-0.687151 -0.264972 -0.266771
-0.298928 -0.119345 0.299224
0.274983 -0.307610 -0.246894
0.156325 -0.107553 -0.237187
-0.175057 0.179012 -0.227063
0.091322 0.509939 -0.200167
-0.577208 -0.459970 -0.164556
-0.444767 0.523016 0.130473
-0.382833 0.784869 -0.191541
0.100606 -0.793552 -0.134126
-0.370106 -0.127891 -0.250788
0.525733 -0.112364 0.212683
0.835819 0.297157 -0.196009
-0.673684 -0.427739 0.037540
-0.380916 -0.560891 -0.097298
-0.036385 0.268814 0.124173
0.133380 0.696726 0.110459
-0.337036 -0.101146 -0.248344
-0.109794 0.659779 0.156218
0.056675 0.338677 0.306116
-0.439722 0.667748 -0.148717
-0.437808 -0.542314 0.027697
0.181994 0.684065 -0.039844
0.216966 0.186080 -0.217439
0.002527 -0.502325 0.076952
-0.415615 -0.543420 -0.104196
0.829178 0.332836 -0.193937
0.074576 0.738054 -0.059890
-0.332397 0.878397 0.155287
-0.623705 -0.189549 0.081805
0.159864 -0.421056 0.085710
-0.472809 0.372504 -0.221960
0.113814 0.235822 -0.216750
0.096215 0.617470 -0.193341
0.453439 0.366793 -0.200620
0.228572 0.653236 0.069280
0.617624 -0.282252 -0.078099
0.139670 0.153133 0.121076
-0.300354 -0.473153 0.071678
0.193477 0.161638 0.122868
-0.432843 -0.087465 0.298077
0.634790 -0.182964 -0.230686
-0.847057 -0.324888 -0.207510
-0.031174 -0.350327 0.085650
-0.121626 -0.694617 -0.002831
-0.855383 -0.321747 -0.194931
-0.408196 -0.254623 0.249514
0.123301 -0.756430 -0.278461
-0.441670 -0.261824 0.169641
-0.278566 0.782038 -0.191848
-0.060866 0.608220 -0.197598
