0.546080 -0.207759 0.256895
-0.250605 0.248726 0.131099
0.680161 -0.333905 -0.004926
-0.619663 0.121202 -0.286281
-0.313880 0.459054 0.305450
0.354203 0.047448 0.250314
0.314388 -0.437063 0.214975
0.081992 -0.787160 -0.266716
0.846368 -0.207413 0.142169
0.410345 -0.538156 -0.096204
0.416454 -0.533950 -0.150598
-0.711068 -0.188558 -0.093047
-0.244709 -0.278719 -0.276353
-0.307004 -0.721933 -0.100492
0.396193 0.009172 0.159361
0.788399 0.090788 0.000034
-0.141351 0.332011 0.246163
0.217985 -0.331305 0.190547
-0.401967 0.391070 0.100072
0.446264 -0.087684 0.320176
-0.099162 -0.079497 -0.249696
0.375515 0.021955 0.236049
-0.175745 -0.283744 0.272593
0.430809 0.477754 -0.163449
0.866648 -0.016159 0.017816
-0.353866 -0.547346 -0.304014
-0.643789 0.377517 -0.208120
0.179985 0.808259 -0.166039
-0.011147 0.109021 0.114670
0.243902 0.101886 -0.205403
0.539972 0.142568 -0.174632
-0.803121 0.019907 0.033625
0.187052 -0.276743 0.163568
0.368074 0.605957 -0.161167
-0.135292 -0.243433 -0.263678
0.585633 -0.405087 0.013780
-0.190644 -0.618468 0.160309
0.095901 -0.254626 0.101455
-0.209786 0.242232 -0.239518
-0.182326 -0.513091 0.264690
0.538716 -0.439732 0.115438
-0.619328 -0.285799 -0.220175
0.819097 -0.229322 -0.037617
0.295700 0.008944 -0.206457
0.562124 0.243904 -0.166006
-0.353552 -0.626643 -0.277585
-0.087123 0.179762 -0.231872
-0.612353 0.083932 0.262205
0.049331 -0.176232 0.250388
-0.821752 0.152357 0.040374
0.408401 -0.040730 0.336781
-0.290393 0.475568 0.142715
-0.291873 -0.751953 -0.047939
-0.279488 -0.191652 -0.274059
0.651867 0.178363 -0.161688
-0.461552 0.346031 0.088877
0.007118 -0.552202 0.116317
0.332347 -0.212314 -0.217206
-0.047798 0.544455 -0.204671
0.037165 0.023807 -0.230086
-0.215628 -0.066621 0.083925
0.704632 0.067900 0.180091
-0.042258 0.831755 -0.155642
-0.614298 -0.025820 0.111738
0.814232 -0.009212 -0.158315
-0.653408 0.201459 0.113350
0.546246 0.416519 -0.027488
-0.798803 -0.086052 -0.021466
-0.114600 0.605680 0.136783
0.300282 -0.444357 -0.235183
0.508068 -0.148059 0.207528
0.198212 -0.268509 0.138481
-0.249883 -0.760751 -0.293885
-0.173538 0.731022 0.139242
0.661807 -0.330826 -0.193500
-0.113869 -0.934850 -0.255266
0.835499 0.037708 -0.048645
0.258391 -0.214292 0.119502
0.052156 -0.237645 0.115338
-0.194549 0.386185 -0.228808
-0.798373 0.055538 0.036368
-0.355525 0.169389 0.107324
0.237171 -0.205240 -0.225802
0.474922 -0.025025 -0.191599
-0.151147 -0.274027 -0.267154
-0.274660 0.657142 -0.056904
0.051414 0.553453 0.149210
0.778665 0.069450 0.179966
0.067407 0.136891 0.123933
0.036611 0.554721 -0.195984
-0.139604 0.374139 0.169510
0.108994 0.922435 0.178423
-0.182768 -0.467220 -0.282589
-0.663084 0.364817 0.042531
0.722464 0.040504 0.180024
-0.237929 0.259600 0.307717
-0.665164 0.262310 0.062338
0.052257 -0.182872 0.205286
0.343083 -0.497727 -0.234546
0.595532 0.068360 0.260451
0.272214 0.442290 0.163056
-0.579352 -0.359496 -0.110880
0.242655 -0.033995 -0.214263
0.482587 -0.103754 0.354253
0.292158 0.416835 -0.180553
0.701695 -0.047843 -0.171502
-0.152704 0.400759 0.120708
-0.089245 -0.378958 0.282171
-0.049235 0.543688 -0.204857
0.427921 -0.279509 0.256756
-0.349064 0.317369 -0.247928
0.003167 -0.488841 0.267732
0.323146 0.044205 -0.201578
0.248332 -0.659258 0.056907
-0.275678 0.380561 0.313304
0.016570 -0.388619 0.278437
-0.903593 0.060716 0.026696
0.168390 -0.084243 -0.224558
-0.159336 -0.253178 0.132427
0.504344 -0.287019 -0.205656
0.488240 0.108190 0.368426
0.536807 0.451409 -0.145249
0.729949 -0.297661 -0.182867
-0.216714 -0.585150 0.248098
0.030273 -0.104537 0.311190
0.211904 -0.145915 0.119480
0.483208 -0.153452 -0.199073
0.358551 0.059515 0.156614
-0.158936 -0.927845 -0.048221
-0.284195 -0.720146 -0.268608
0.564251 -0.232044 0.258134
-0.508323 0.018108 0.061542
-0.802982 0.256881 -0.278985
0.223870 0.848764 -0.159260
0.014478 0.048623 0.115522
0.061531 -0.744881 -0.277220
-0.066239 -0.849008 0.047798
0.034640 0.353782 0.134770
0.400963 0.524276 -0.163294
0.255736 0.374456 0.195256
-0.040110 -0.878966 -0.223757
0.453763 0.259615 0.241418
-0.636807 -0.246855 -0.303307
0.592806 -0.400722 -0.127372
-0.178180 -0.915641 0.032867
0.527091 0.186013 0.170806
0.321139 0.089855 0.257440
-0.055755 -0.450382 0.280761
0.681225 0.172826 0.184615
-0.128285 0.375826 0.120695
-0.461352 0.262225 -0.262154
0.452013 0.510393 0.134695
0.185615 0.839323 0.180363
-0.080478 -0.904010 0.042906
0.036586 -0.288171 0.212531
-0.346644 0.062423 0.079768
0.391816 0.587723 0.147009
0.025534 -0.301981 -0.252151
-0.395620 0.139488 0.154648
-0.036098 -0.561597 -0.274713
0.280427 0.148881 -0.198907
-0.491634 0.067261 0.183535
-0.145065 -0.753877 -0.297445
-0.171709 -0.014205 -0.252394
-0.510750 -0.473315 0.010169
-0.657860 0.368003 -0.059374
-0.499302 0.447637 0.090033
-0.050915 0.594800 -0.201728
-0.009621 0.372763 -0.212086
0.127978 0.377492 0.145171
0.153094 0.493059 0.154994
-0.424981 -0.590202 0.027885
0.318466 0.019138 -0.203636
-0.442487 0.361584 0.246404
-0.239105 0.682961 -0.192644
0.343016 -0.160488 0.221808
0.414643 -0.535415 -0.163876
-0.423308 -0.428767 -0.302989
0.171493 -0.170652 -0.229822
-0.430973 0.034785 0.069971
0.222855 0.714091 0.175848
-0.040643 0.044895 0.260937
-0.804487 0.257395 -0.056520
0.298204 0.239789 -0.191368
0.363607 0.371712 0.279412
-0.417266 -0.149816 -0.284469
-0.314570 -0.733378 0.012339
-0.748136 0.298664 -0.224836
-0.140118 -0.114275 0.139786
-0.587907 -0.347234 -0.115817
-0.069524 -0.674866 -0.285179
0.532252 -0.028491 -0.186370
-0.427906 -0.525815 -0.290301
-0.415730 0.369230 -0.250932
-0.903956 0.182560 -0.027791
-0.208147 -0.532201 0.236447
-0.182664 -0.451066 0.074772
-0.262600 0.666244 -0.056597
-0.325063 -0.167981 -0.276870
-0.356093 0.426505 0.210989
0.311389 -0.300780 -0.224890
0.149818 0.369912 -0.197107
0.003050 -0.588917 0.102600
-0.216361 0.594358 0.126378
-0.116236 -0.699912 -0.291232
0.337493 0.389595 0.367114
-0.604122 0.407633 -0.182710
-0.016825 0.522767 0.140747
0.253192 0.793686 0.028760
0.171317 0.287549 0.260589
0.269645 0.385925 0.326741
0.791469 0.070101 0.087435
-0.328499 0.094916 -0.260284
0.331699 0.682435 0.067378
-0.436916 0.375712 0.091338
0.224414 -0.195187 -0.226368
0.448775 -0.087494 0.301703
-0.841074 0.182210 0.040457
-0.039827 -0.878769 -0.226033
-0.542118 0.454121 -0.222373
0.256388 0.773481 0.112758
-0.013115 0.205345 -0.223188
0.329686 -0.163940 -0.214347
0.095641 -0.775621 -0.099491
0.042791 -0.188934 0.305397
0.225445 0.130212 0.138531
0.525483 -0.185380 0.282568
-0.869282 0.207263 -0.224376
0.224367 -0.038436 -0.216288
-0.501970 -0.202007 -0.295882
-0.776133 -0.069447 -0.266532
0.131943 -0.733261 -0.269777
0.093288 0.935685 0.068409
0.389993 0.322513 0.354478
-0.524007 0.234815 0.280313
0.718430 -0.104257 0.312805
0.683846 -0.330413 0.091154
-0.065629 0.094311 -0.235325
0.258061 0.791927 0.004124
-0.375106 -0.607428 -0.228624
-0.079840 0.251383 0.117296
0.457856 -0.103317 0.321703
0.787706 -0.091020 -0.166101
-0.009961 -0.111189 0.306936
0.107003 -0.765976 0.045169
0.412117 -0.363550 0.185052
0.652388 0.096188 0.176943
0.310462 0.444991 0.166867
-0.286553 0.221927 0.174610
0.194678 0.714962 0.173224
0.015590 -0.516317 0.077391
-0.620303 0.244796 0.065477
-0.704660 -0.173356 -0.217572
0.874213 -0.188358 -0.121310
0.137512 -0.743617 -0.043771
0.172352 0.322080 0.145826
-0.475130 0.506946 0.085665
-0.854479 -0.008248 -0.043103
0.440656 -0.516243 -0.225255
0.356629 -0.578895 -0.124670
-0.636234 -0.309231 0.020667
-0.498129 0.062210 0.163193
-0.770050 0.113317 0.094883
0.124103 0.791570 0.171441
0.206953 0.847698 0.066548
0.748755 -0.283040 -0.124613
-0.328684 0.446798 0.158935
0.415887 0.601334 -0.092063
-0.613859 0.215126 0.270502
0.060028 -0.249914 -0.245521
-0.345972 0.434008 0.193050
0.651880 -0.355861 -0.088202
0.346152 0.685946 -0.051660
0.550173 -0.059908 -0.186687
-0.172661 -0.024543 -0.253150
-0.041064 -0.050013 -0.242274
-0.070590 0.623311 -0.201765
0.568171 0.324123 0.183598
0.473553 -0.144266 0.144467
0.869361 -0.162006 -0.162902
-0.358190 -0.346695 -0.291517
-0.625784 0.390666 -0.266766
-0.003355 0.045110 0.192408
0.180210 -0.284851 0.209166
0.247607 0.319077 -0.191079
-0.174501 0.451229 -0.222717
-0.788858 -0.011965 0.032931
-0.445895 -0.554291 -0.015396
-0.665678 0.289086 0.064012
-0.190384 -0.312563 -0.273364
0.281013 -0.424832 0.243692
0.690588 0.154067 -0.159569
-0.649548 -0.253200 -0.181282
-0.052798 -0.643478 0.240865
-0.229249 0.265567 0.229151
-0.306077 0.464623 0.262568
0.770711 -0.157771 -0.172011
0.156844 0.647292 -0.178595
-0.128945 -0.318371 -0.267895
0.337527 0.057047 0.315893
-0.073293 -0.138748 -0.251047
-0.008251 0.266072 0.125049
-0.124855 -0.119044 -0.254683
0.491744 -0.136045 0.257957
-0.179233 0.513707 -0.219148
0.642380 -0.175485 0.364834
0.263560 0.157621 0.301816
-0.918024 0.146261 0.030827
0.936770 -0.140354 -0.012636
-0.299427 -0.256570 -0.280131
-0.533103 -0.397847 -0.231082
-0.768504 0.231731 -0.293324
-0.639340 0.382843 0.057494
-0.541620 -0.229351 -0.301411
-0.014217 -0.342340 -0.258527
-0.592863 0.251036 0.068488
0.072430 0.073838 0.120354
0.674492 0.265890 -0.127954
0.289378 0.497122 0.168215
0.419768 -0.531239 -0.122197
-0.886142 0.194721 -0.200398
0.099387 0.622499 0.158214
0.384514 -0.556948 -0.002150
0.454320 0.467778 0.182013
-0.174012 0.732054 -0.195242
-0.168893 0.310538 0.152713
0.179529 0.865944 0.161450
0.252262 0.729251 0.179619
0.058328 -0.188908 0.124567
0.026308 0.377689 0.135515
0.812939 -0.126343 -0.165974
0.085448 0.369721 -0.203241
0.456549 -0.076260 0.188535
-0.192586 -0.499429 0.264593
-0.763012 0.288654 -0.061201
0.305893 -0.096093 0.131623
0.228783 -0.245413 0.142546
0.157835 0.854011 -0.165202
-0.543929 0.381780 0.081552
-0.319487 -0.706960 -0.092347
0.344844 0.391547 0.305696
0.115801 0.243664 -0.208464
0.245791 -0.231260 0.320650
0.440357 -0.209138 -0.206731
0.934347 -0.140835 0.169028
-0.446753 0.101059 0.174811
0.351777 0.490989 0.173755
0.717550 -0.132895 0.213133
-0.694120 0.092186 0.254960
0.108725 -0.532651 -0.259079
-0.334820 0.541302 -0.232168
-0.446052 0.359209 0.288866
0.733292 -0.294106 -0.043608
0.565365 -0.249861 0.146405
-0.093945 0.795014 0.148604
0.119914 -0.117007 -0.231276
0.624868 -0.281382 0.150036
0.388543 -0.543890 -0.233193
0.711677 -0.094890 0.310548
-0.179856 0.730074 0.132286
0.794292 -0.246802 0.128915
0.670017 -0.168922 0.191056
-0.216452 -0.064089 -0.259858
-0.479351 0.333878 0.260913
0.391072 -0.258409 -0.214587
0.025797 -0.011354 0.316760
0.142242 0.952061 -0.031857
0.448020 -0.309279 0.273418
0.166693 0.037617 -0.216880
0.519568 0.420235 0.138628
0.204929 0.102312 -0.209082
0.069307 -0.031547 0.258553
0.249532 0.369505 0.158705
-0.726130 -0.003843 0.240218
0.438233 0.528138 0.137281
0.282734 0.022667 0.137061
0.366449 0.146249 -0.190896
0.050712 0.041008 0.150157
0.692362 -0.050428 0.211190
0.399601 -0.166410 -0.207857
0.016490 -0.438639 0.196143
0.488973 0.292881 0.174056
-0.092674 -0.076448 -0.248882
-0.490918 0.493110 -0.173913
-0.000326 0.355329 0.131544
-0.285638 0.648593 -0.092853
-0.286235 -0.770914 0.012520
0.144767 -0.048000 -0.224473
0.088436 0.610663 0.156411
0.715404 -0.105097 0.338286
-0.747687 -0.157702 -0.000451
-0.380785 -0.645408 0.010591
0.303032 -0.619100 -0.093188
0.360360 -0.365368 -0.224388
0.151818 0.145812 0.132534
-0.402448 -0.050659 -0.276681
0.283714 0.222200 -0.193877
0.887615 -0.052278 0.061817
-0.309307 0.204210 0.100539
0.280117 0.318529 -0.188022
0.256582 0.073315 0.137832
0.057169 -0.133274 0.230614
0.072750 0.072715 0.120312
0.074117 0.024619 0.295992
0.666078 0.220259 -0.157642
-0.004804 -0.539407 0.276392
-0.514051 -0.441440 -0.134458
-0.195904 -0.614170 0.050576
-0.122319 -0.939519 -0.025064
-0.076484 0.509020 -0.209678
0.306475 -0.616739 -0.125042
-0.082211 0.524095 -0.209253
-0.601083 0.241566 0.198163
0.473619 0.228569 0.266478
0.274585 0.304620 0.360745
-0.075902 -0.320409 0.287206
0.754728 -0.278046 -0.058882
-0.749330 0.298805 -0.084228
0.008175 0.700329 -0.189320
-0.531870 0.462991 -0.068912
0.873810 -0.188646 -0.119106
0.085748 0.608831 -0.187830
-0.009926 0.701379 0.152894
0.891989 -0.172767 0.172612
-0.837939 -0.010029 -0.148842
0.103216 0.483642 0.149645
-0.124099 0.312955 -0.226820
-0.291291 -0.761438 -0.002123
-0.206806 -0.588550 0.127099
0.017482 -0.102795 0.310086
-0.126349 -0.230745 0.288177
-0.362240 0.009205 -0.269006
-0.680045 -0.046961 0.146216
-0.563458 -0.067557 0.050788
-0.206980 -0.640965 -0.296069
0.487472 0.381388 -0.164260
-0.585490 0.422191 -0.115323
-0.403221 -0.567697 -0.241873
-0.199673 -0.580169 0.057997
-0.117793 0.058173 -0.242611
-0.639587 0.382266 0.004841
0.059966 -0.345428 -0.251671
0.645387 -0.186423 0.336966
-0.430627 0.112770 0.113435
0.338789 0.408468 0.258864
-0.188146 -0.454967 0.132109
-0.664047 0.363390 -0.052018
-0.471278 0.382843 0.088530
0.688541 -0.326970 0.077825
-0.325933 0.449024 0.179146
0.115917 0.683863 0.163734
-0.216703 -0.761299 -0.304735
0.543065 -0.091841 -0.189418
-0.618628 -0.028802 0.150075
0.465920 0.243372 0.242225
-0.375426 0.322387 0.300076
-0.766260 -0.065338 0.031646
0.473543 0.480267 0.143264
-0.004641 -0.850952 -0.054782
-0.335258 0.442302 0.311610
0.442526 0.185447 -0.181140
-0.949669 0.147747 -0.071339
0.265594 -0.646515 0.018931
-0.811333 -0.039300 -0.180088
0.218932 0.242579 0.165685
0.902917 -0.165114 0.092757
0.652612 0.127031 0.178948
-0.112669 0.058049 0.217741
-0.153453 -0.914641 -0.155801
-0.131519 0.361055 0.182037
0.276353 -0.039979 0.132424
0.196275 0.124954 0.135419
-0.551491 0.279662 0.074264
-0.153531 0.748729 -0.030414
0.845592 0.014596 0.002643
0.437825 0.570741 -0.083876
0.234734 -0.510060 -0.245643
-0.149444 0.751401 -0.085964
0.390311 -0.234672 0.282742
-0.196620 0.432521 0.259313
0.184584 0.333036 -0.196174
0.710820 -0.137038 0.339134
0.267417 -0.116833 0.126630
0.174444 -0.459091 -0.248097
0.357346 0.277005 -0.183350
-0.674585 0.355577 -0.033366
0.676708 -0.336091 0.051708
-0.183521 -0.895961 -0.044781
-0.111511 0.075236 -0.240916
0.720307 -0.304057 -0.064480
0.124170 0.000146 -0.223334
-0.736220 -0.175748 0.014632
0.691851 -0.046438 0.193767
-0.601294 -0.156807 -0.302419
0.279835 0.019865 0.136605
0.356681 0.689400 -0.143091
0.000552 0.446568 -0.206370
-0.452111 0.522998 -0.091847
0.053072 -0.166736 0.222641
-0.601063 0.411484 0.025328
-0.211672 0.278880 0.236153
0.035844 0.801407 0.163681
0.471270 0.130919 -0.181914
-0.724762 0.318340 0.050359
0.181022 0.258879 0.343797
0.531096 -0.191564 0.276022
-0.166008 -0.626853 0.225367
0.136358 0.177303 0.133089
-0.193423 -0.440816 0.268285
0.188512 0.604379 0.165524
0.226098 -0.677051 -0.080288
-0.185759 0.435113 0.170107
0.130265 0.936380 0.133933
0.715268 -0.105954 0.343735
-0.066834 0.179562 -0.229956
0.449479 0.440109 -0.164095
-0.422674 0.477877 0.099265
-0.653395 0.366379 0.070152
0.243644 -0.361533 0.170922
0.521036 0.041873 -0.182910
0.894745 -0.023817 -0.137441
-0.457460 -0.487308 -0.287100
0.004889 0.759437 0.158037
-0.690459 0.174241 0.212691
-0.724130 0.017333 0.114958
-0.278528 0.228343 0.223323
-0.602646 -0.333312 -0.086455
-0.767909 -0.077964 -0.278976
0.526755 -0.448708 0.121930
0.345992 -0.413316 0.201869
-0.653085 -0.054469 0.194758
-0.190192 -0.326437 -0.274238
-0.407958 0.386548 0.099830
0.556166 -0.019207 -0.183499
-0.360589 0.060753 0.078335
-0.456081 0.351062 0.210613
0.412534 -0.017653 0.146810
0.024077 0.883824 0.116833
0.655322 0.252823 -0.156570
0.217282 0.210898 0.343740
0.492839 -0.474430 0.104068
0.143438 0.701817 -0.176362
-0.001113 -0.848465 -0.078326
0.299538 -0.062822 0.133159
0.271480 -0.397735 0.167555
-0.419169 -0.468268 -0.305137
-0.346159 -0.637208 -0.273485
-0.927118 0.083502 -0.020023
0.135549 0.023851 -0.220727
0.763738 0.101285 0.116455
-0.118467 0.347715 0.119820
-0.591052 0.248298 0.085292
-0.352110 0.429329 0.186581
-0.767491 0.284649 -0.145548
-0.016127 -0.861297 -0.281269
-0.135692 -0.618613 0.065306
-0.569194 0.345760 0.076833
0.161221 0.639878 0.165212
0.540634 0.195383 0.172697
-0.461678 0.415967 -0.252294
0.393486 0.349695 0.187254
-0.579566 0.257833 0.202455
0.629688 -0.199142 0.219217
0.264298 -0.035312 -0.212290
-0.366078 -0.631570 -0.164512
-0.151139 0.324517 0.231507
-0.606075 0.027680 0.259183
0.020259 -0.060706 0.313058
0.378748 -0.498849 -0.231227
0.680546 0.185037 -0.158532
-0.348495 0.602421 0.076254
-0.723008 0.094162 -0.297848
0.003470 0.720350 -0.188480
0.396212 0.629061 -0.100925
0.480743 0.226168 -0.174886
0.062743 0.815062 -0.176750
0.223403 -0.678518 -0.003911
0.376171 0.028118 0.199078
0.045876 0.065729 0.117307
0.446927 0.276162 0.201990
-0.496564 0.319944 0.133209
-0.325960 -0.121294 0.069916
0.330108 0.091352 0.187147
-0.116292 0.239021 0.113034
0.081265 0.477015 0.147132
-0.023074 0.148984 0.116106
0.038877 -0.717469 -0.277611
-0.131669 0.338418 0.125146
0.422981 0.539784 0.182193
0.654534 0.155831 -0.162884
-0.705833 -0.192763 -0.107365
0.401190 -0.061181 0.142931
0.095292 0.755367 0.166372
0.798347 -0.243786 0.123086
-0.594873 -0.010146 0.249013
0.660822 0.241633 0.094706
0.136920 -0.134985 -0.230815
-0.149192 -0.920513 -0.154582
-0.028352 -0.052970 0.308933
-0.428248 0.115179 0.196154
-0.380563 -0.625458 -0.095850
0.299114 -0.442105 0.208550
-0.091094 -0.753565 -0.292293
0.079347 0.030170 0.239897
-0.399280 0.562403 -0.153251
0.802988 -0.094521 -0.164873
0.388797 -0.550056 0.110302
-0.122485 0.345790 0.184860
-0.612841 0.232806 0.213078
-0.643445 -0.186413 -0.308332
0.106374 0.057327 -0.221348
-0.547115 -0.256953 -0.303710
-0.330443 -0.081105 -0.271792
0.844636 -0.201770 -0.167812
0.391110 0.016729 0.154999
-0.464386 -0.410119 -0.305696
-0.663965 0.194404 0.236037
0.072610 0.199974 0.128486
-0.305437 -0.701456 -0.219053
-0.547970 -0.002369 -0.287413
0.173563 -0.450926 -0.247656
-0.335009 -0.355614 -0.289887
0.276446 0.487733 -0.177486
0.247458 -0.145384 -0.220973
0.708744 0.088670 -0.162050
0.835238 0.053306 -0.128843
0.043435 0.592653 0.150973
0.630902 -0.324673 -0.196043
-0.353726 -0.097485 0.068807
-0.231776 0.263102 0.153925
0.604598 -0.142764 0.363346
0.568759 0.247548 0.178727
0.037135 -0.066290 0.314303
0.796028 -0.245480 0.130619
0.032818 -0.305230 0.228019
-0.867826 0.208824 -0.162069
-0.687331 0.346602 0.053214
0.172793 -0.717954 -0.172589
0.490365 -0.239896 -0.203954
-0.940421 0.154945 -0.041679
-0.172113 0.150565 0.102035
-0.551612 -0.116733 -0.295116
-0.173140 0.732685 -0.198933
-0.033053 0.685500 -0.194195
-0.713596 0.148060 0.256703
0.061645 0.030238 0.270231
0.091448 0.087074 -0.220854
0.589030 -0.403009 -0.205065
0.660629 -0.043021 -0.175097
0.804686 -0.114510 -0.165997
-0.287458 0.220955 0.135724
-0.344774 0.604675 0.001574
-0.210596 0.518510 0.122047
0.911740 -0.159619 -0.063881
0.268134 0.202392 -0.196633
-0.418018 -0.451535 -0.303951
0.172916 0.321270 -0.198040
-0.349478 0.431310 0.185904
-0.066048 -0.645146 -0.282936
0.719549 0.165983 0.083792
-0.666057 0.048489 0.254818
0.051973 0.315275 -0.209927
-0.768427 0.114468 0.084962
-0.513230 -0.473292 0.027304
-0.019880 -0.050673 0.309886
-0.127632 -0.004935 0.302582
-0.271898 0.620894 0.122804
0.640015 0.277699 0.049877
0.139357 0.619280 -0.182060
0.386221 -0.209596 -0.211908
-0.582299 -0.335209 -0.218067
0.221794 0.844968 -0.022377
-0.873767 0.068373 -0.311741
-0.076330 0.367333 0.125089
0.542590 0.139168 0.256569
-0.735356 -0.038782 -0.307575
0.549413 0.409069 -0.010358
0.207158 0.002143 -0.215314
0.243576 -0.159070 -0.222222
0.218613 -0.683934 -0.246872
-0.557909 -0.352141 0.033008
0.062920 0.083269 0.120056
0.556380 -0.221560 0.257787
0.215132 0.239301 0.209364
0.074562 0.579262 0.153072
0.142176 0.146328 0.131650
0.682412 -0.039252 0.221666
-0.666516 0.361037 -0.118004
-0.188575 0.015396 -0.252094
-0.177902 -0.509692 -0.284859
-0.153986 -0.890503 -0.279007
0.082121 -0.702775 -0.272554
0.416304 0.193113 0.367048
0.346041 -0.170738 0.254653
-0.485515 -0.071074 0.057974
0.151962 0.672096 0.166404
0.419188 0.357142 -0.172313
-0.124762 -0.942211 -0.139603
0.462787 0.496104 0.134844
0.095088 0.659808 -0.183662
-0.140532 0.759505 0.100147
0.277461 -0.122383 -0.216640
0.088579 0.401683 0.142981
-0.430841 -0.526983 -0.263733
-0.196939 -0.469632 0.210073
-0.428396 -0.248656 -0.291886
0.305047 0.727943 0.013573
0.523187 -0.452719 -0.055917
0.943876 -0.134309 0.079495
0.084622 0.439995 -0.198799
0.005288 -0.507025 0.212786
0.329638 -0.597633 0.094704
-0.350382 0.593703 -0.230277
0.802184 -0.240971 0.112326
-0.380987 0.117803 0.080065
0.573895 0.104994 0.218401
-0.392888 0.137802 0.080220
-0.720879 0.280949 0.058239
-0.782371 0.088677 0.246343
0.033938 -0.367547 0.111308
0.067149 0.915546 0.012163
0.294864 -0.153874 -0.217011
0.539060 0.130812 0.325073
-0.143841 0.329591 0.173226
-0.218843 -0.852750 -0.026178
-0.425118 -0.548287 -0.191552
0.450210 0.560215 -0.114716
0.517109 0.160852 0.319883
0.351463 0.038551 0.316159
-0.011214 0.456728 0.137032
-0.340544 0.181486 0.214419
0.171101 0.899787 0.042158
-0.181803 0.518983 -0.219053
0.020210 -0.742374 -0.280988
-0.794235 -0.066412 -0.156519
-0.076771 0.585053 -0.204814
0.439641 0.160117 0.367145
0.700298 -0.319517 -0.113408
0.714212 -0.134618 0.320437
-0.547128 -0.409667 -0.071330
0.339035 -0.236879 -0.218150
-0.649470 -0.052133 0.141899
-0.275478 -0.419875 -0.288360
-0.098941 0.598175 0.137790
0.591768 -0.400367 0.026165
0.153829 0.495950 -0.188618
-0.175702 -0.395615 0.085985
-0.494723 0.491923 0.053198
0.482859 -0.153330 -0.199099
-0.376688 0.522254 -0.237375
-0.443228 -0.253567 0.050255
-0.090758 0.795943 -0.050379
-0.037721 -0.875182 0.043500
0.049377 0.582784 0.150904
-0.181684 0.097489 0.097711
-0.499746 -0.462074 -0.125511
-0.027729 -0.458246 0.282920
-0.451929 0.523032 -0.105758
0.184867 0.896583 -0.036789
-0.163261 -0.620939 0.144010
0.365543 0.629461 0.110388
-0.025836 0.028208 0.314395
0.106445 0.046981 0.121861
0.394632 -0.235231 0.255606
-0.058485 0.285327 0.121510
0.606577 -0.216595 0.216879
-0.600938 0.046025 -0.289336
-0.825318 -0.043413 -0.061138
-0.658578 0.197390 0.090595
-0.056580 -0.890651 -0.123803
0.688892 0.077429 0.179207
0.905746 -0.164351 -0.092269
-0.436597 -0.559127 -0.054674
-0.024504 0.400311 0.132139
-0.536063 0.421730 0.084870
-0.197606 -0.891018 0.027249
-0.569977 -0.393811 0.004306
-0.063476 0.676304 -0.197679
-0.157604 0.395804 -0.224676
0.371210 -0.566623 0.046693
0.369766 -0.188825 0.184649
-0.294472 -0.755969 -0.008738
-0.561339 -0.397522 -0.036294
0.176653 -0.400250 -0.244102
-0.215081 -0.583345 0.232091
0.088185 -0.330811 -0.248048
-0.420066 0.339555 0.296935
0.248037 -0.659366 0.072323
-0.623698 0.143887 -0.285205
-0.062120 0.444179 -0.212484
-0.010191 0.772359 0.157435
0.004083 -0.844955 -0.133740
-0.170638 0.211187 0.106076
0.560200 -0.423954 0.057249
-0.110590 -0.636499 0.252464
-0.879722 0.200931 -0.016060
-0.431431 -0.527577 -0.256509
0.066239 -0.797738 -0.090418
0.049544 -0.811674 -0.271114
-0.023601 -0.437714 0.284633
0.208070 -0.016010 -0.216395
-0.052064 -0.636828 0.153527
0.703248 -0.316015 0.058699
-0.496789 -0.109624 0.054422
-0.654969 0.370029 -0.080338
0.783486 0.115603 -0.096248
0.006207 -0.480363 0.246439
0.073459 -0.180100 -0.239752
0.284535 0.778927 -0.111751
-0.339220 0.569462 0.113093
0.051315 0.902235 -0.171820
0.185265 0.321212 0.185161
-0.099107 0.692188 0.143822
-0.587491 0.057530 0.262871
-0.907075 0.100168 -0.247127
-0.811485 0.250667 -0.251894
0.429635 0.557874 0.040773
-0.050077 -0.263350 -0.256856
-0.025419 -0.506941 -0.270182
-0.031725 -0.637650 0.128300
-0.729891 0.144027 0.150167
-0.219800 -0.152622 -0.265872
0.469078 -0.494070 -0.126884
0.030740 0.787311 -0.181579
0.654700 -0.214690 0.157163
0.089105 -0.420123 -0.253706
0.112630 -0.409230 0.093100
-0.677924 0.182842 0.097116
-0.785260 0.272163 -0.021330
-0.564495 -0.352320 0.032370
0.909195 -0.059683 -0.049422
-0.015237 0.775833 0.157178
-0.260492 -0.783008 -0.103036
0.821963 0.006066 0.187270
0.478150 0.486523 0.078315
0.529788 0.417575 0.081487
-0.142472 -0.606861 0.262448
-0.617327 0.362165 0.073311
-0.115036 0.778947 0.127795
0.204261 0.459587 0.157706
-0.475114 0.237595 -0.265047
0.037295 0.129184 -0.223294
-0.424118 -0.499896 -0.307642
0.212830 0.720496 0.175306
-0.327379 0.188466 -0.254159
0.332987 0.620158 -0.163590
-0.128578 0.146500 0.105914
0.099179 -0.772450 -0.031776
0.437560 -0.072396 0.300363
-0.095504 -0.378964 -0.268613
0.411094 -0.274245 -0.213702
-0.515315 0.170980 -0.273156
-0.963568 0.136579 -0.045442
-0.016551 0.555083 0.142852
-0.473132 -0.421955 -0.307289
0.543079 0.433823 -0.096430
0.178170 0.883237 0.079985
-0.022978 -0.850892 -0.292077
0.316145 0.428264 -0.177537
0.170799 -0.466134 0.094971
-0.155281 -0.618533 0.098809
0.281254 0.020712 -0.207074
-0.214420 0.703554 0.072759
0.041466 0.034751 0.247416
-0.131669 -0.500477 -0.279870
0.043373 -0.486473 -0.262323
-0.238877 -0.792071 -0.205801
-0.403844 -0.254739 0.053925
-0.701785 0.165156 0.139823
-0.061201 -0.698591 -0.285914
0.246550 0.280594 0.356534
-0.379726 -0.007669 0.072113
-0.677663 -0.211117 -0.206893
-0.236059 -0.791161 -0.230198
-0.294956 -0.101211 -0.269711
0.723722 -0.127246 0.347030
-0.731807 -0.157165 -0.113789
-0.452348 0.061575 0.069662
0.060804 -0.080470 0.276150
-0.529866 0.295258 0.192698
-0.153710 0.055881 0.097694
-0.040173 0.811993 0.157133
0.007310 -0.843055 -0.205900
-0.557947 0.264841 -0.271171
0.477669 -0.055084 0.356917
0.664892 -0.017968 0.231680
-0.442713 0.510042 0.099429
0.270007 -0.644259 -0.125739
-0.447047 0.290126 0.291190
0.461689 0.236480 0.307904
0.571931 0.360054 0.090655
0.691157 -0.151944 0.329746
0.443759 0.232349 -0.178005
-0.421436 0.377012 0.185107
-0.066451 0.574827 0.139377
-0.508685 -0.473249 -0.004553
0.728046 -0.186215 -0.177898
-0.102532 -0.513696 0.272239
0.649632 0.037430 0.172900
0.327640 0.694515 0.032108
-0.087694 -0.523778 0.273002
-0.332165 0.612995 -0.159432
-0.410907 0.460229 -0.244619
-0.573964 0.261752 0.160961
0.027320 0.244884 0.127068
0.199164 0.103336 0.134303
-0.014801 -0.480103 -0.267445
0.448928 0.538263 0.009629
-0.378932 0.065272 0.076881
0.879456 -0.182624 0.118489
-0.258232 0.500884 0.284394
0.503207 0.264108 -0.170309
-0.185558 0.084285 -0.247375
-0.462072 0.515979 -0.024890
-0.127906 -0.131092 -0.255748
-0.188438 -0.435170 0.269122
-0.182039 -0.441963 0.082650
-0.605502 -0.329486 -0.086691
0.070673 -0.087999 0.148730
-0.257338 -0.502135 -0.291927
0.786460 -0.252614 0.142028
0.582247 -0.145306 -0.189131
-0.936260 0.104721 -0.067969
-0.134624 0.763442 0.029870
0.075640 0.440524 -0.199619
-0.189523 -0.466487 0.128969
-0.398335 0.564316 0.008541
-0.610998 0.402905 -0.120816
-0.255147 -0.794100 -0.081912
0.305136 0.709165 0.111687
-0.149163 0.483418 -0.218237
-0.086004 -0.026508 0.305153
0.212966 0.209293 -0.201435
-0.412201 -0.037666 -0.276773
-0.288590 0.221077 0.267379
0.215855 -0.422166 0.102084
0.271479 -0.276590 -0.227129
0.290611 -0.627092 0.092886
0.108678 -0.766508 -0.196914
-0.108097 -0.632947 0.202104
0.222001 0.107343 0.136733
-0.211853 0.705296 0.046470
0.759481 -0.273536 0.065692
-0.915824 0.172593 -0.164428
-0.738539 0.188275 0.050598
0.027322 0.371671 0.135225
-0.683563 0.348531 -0.070074
-0.122436 0.277316 0.114914
-0.744858 0.044041 0.247038
-0.138443 -0.137958 0.292996
-0.116368 -0.625171 0.116078
-0.025615 -0.471358 0.282277
-0.629802 0.389660 0.006462
-0.875134 0.111864 0.032692
0.507983 -0.174114 0.345111
0.129763 -0.330190 -0.244054
0.670012 -0.164849 0.368146
-0.204835 -0.855473 -0.109344
-0.143541 0.329878 0.181348
-0.223141 0.319352 -0.235826
0.454014 0.509638 0.124742
-0.343695 0.551433 -0.232360
-0.507311 0.218652 0.280861
-0.152156 0.749365 -0.084488
0.698700 -0.319387 0.066645
0.583169 -0.233665 0.296687
0.628033 0.288396 0.077012
-0.435067 0.110292 0.230960
-0.767884 0.283798 -0.220174
-0.934186 0.157960 -0.269495
-0.488599 -0.338733 -0.303406
0.044979 0.857977 -0.175679
-0.046225 0.353257 0.127046
-0.169190 0.699938 0.137656
0.037691 0.250858 -0.215429
0.024999 -0.337496 0.265355
0.797071 0.103983 -0.129687
-0.153646 -0.196980 0.159682
-0.402094 -0.250840 0.054342
0.152498 0.826364 0.176380
-0.803524 -0.039435 -0.233721
-0.120551 -0.096702 0.297352
-0.598604 -0.333863 -0.111682
-0.381691 0.233014 0.293731
-0.615277 0.231147 0.237255
-0.043331 -0.881817 -0.280538
-0.267322 -0.351951 -0.283214
0.004211 -0.528330 0.189882
-0.515986 0.476082 0.080398
0.257158 -0.653743 -0.097391
0.235027 -0.240667 0.147377
-0.364697 0.063984 -0.265716
-0.155488 0.748359 0.118717
0.409852 0.187413 0.366068
-0.306523 0.464577 0.301629
-0.442181 0.361707 0.231849
0.034100 0.033194 0.280553
-0.354731 0.597540 0.052430
-0.212597 0.257083 -0.238830
-0.066657 -0.247334 0.292786
0.567047 -0.419351 -0.018687
-0.016389 0.574978 0.144147
0.024688 0.226659 -0.218222
0.302670 0.394139 0.369175
-0.450839 -0.476545 -0.308681
-0.846802 0.185726 -0.303729
0.163012 0.121257 0.132018
0.344776 0.206055 0.361079
0.590309 -0.239114 -0.194399
0.380675 -0.066969 -0.203260
-0.094146 -0.457124 0.276676
-0.243081 0.680478 -0.122952
0.378736 -0.388801 0.176235
-0.235138 0.686281 -0.148605
0.470302 -0.079819 -0.195564
0.624827 0.287590 0.103565
-0.133444 0.446219 0.124733
-0.497238 0.489014 -0.083260
0.849173 -0.205837 0.069360
-0.092503 0.346273 0.122196
-0.835248 0.234624 0.002421
0.002987 -0.498011 0.254564
0.236055 0.272721 -0.195159
-0.911765 0.176310 -0.076133
0.268895 -0.645593 -0.192492
0.439771 0.478895 -0.162523
0.306723 0.116216 0.219152
-0.368150 -0.655541 -0.024055
0.365206 0.659163 -0.043433
-0.016795 0.851764 -0.048201
-0.023866 0.469010 0.136619
0.415946 -0.294174 0.335666
0.117414 -0.759514 -0.142666
0.395595 0.011274 0.353381
-0.810705 0.069084 0.036067
-0.097965 0.623957 0.139541
-0.397177 0.138376 0.163136
-0.209950 0.280739 0.311618
-0.212605 0.664680 0.131259
0.420698 -0.295330 0.336044
0.330222 0.633689 0.180885
0.064784 -0.112854 0.175935
-0.588995 -0.318508 -0.259282
-0.697535 -0.174441 0.031162
-0.023498 0.846792 -0.036536
-0.683233 0.035761 -0.297823
-0.206920 -0.226758 -0.269416
0.513793 -0.459572 -0.024186
0.735843 -0.106487 0.203359
0.847426 -0.013574 -0.155439
-0.005222 0.658754 -0.193269
-0.497013 -0.009245 0.060858
-0.349326 0.181807 -0.256674
0.377257 -0.564124 -0.231568
0.621856 -0.358712 -0.199093
0.723347 -0.300817 0.063184
0.069388 0.916028 -0.150674
0.067818 -0.532750 -0.262976
0.058224 -0.164089 0.167067
-0.132866 -0.947438 -0.019902
-0.215937 -0.600755 0.213095
0.671947 0.247030 -0.011087
-0.676999 0.250280 0.060438
-0.191418 -0.862161 0.035048
0.745619 -0.284379 0.013854
0.010375 -0.840567 -0.182098
-0.316916 0.624684 -0.134623
0.411211 -0.364679 0.124945
-0.609568 0.235495 0.242656
-0.038920 0.270152 -0.221473
0.306467 0.745992 -0.091211
0.002304 0.667849 -0.191968
-0.204420 -0.618409 0.183844
0.881276 -0.181719 0.055391
0.671740 0.233945 -0.156223
0.174572 0.765867 -0.169281
-0.380858 0.408115 0.250869
0.255806 -0.223685 0.323227
-0.200310 0.626207 -0.213915
-0.572908 -0.354665 -0.181123
-0.185573 -0.313283 -0.272953
-0.895303 0.033346 0.022293
0.481177 0.152285 0.370591
-0.043154 -0.136577 -0.248042
-0.389695 0.035019 -0.269957
-0.137643 -0.911983 -0.279801
0.193649 0.711631 0.172912
-0.568328 -0.367018 -0.148049
-0.055804 0.596130 -0.202108
0.066034 -0.603148 -0.267674
-0.475065 0.336459 0.172929
0.168942 -0.719784 -0.027621
0.333355 -0.236651 -0.218676
0.332182 -0.166624 0.247226
0.795464 0.108611 -0.142845
-0.557716 0.162996 -0.277701
-0.040960 -0.162363 -0.249492
-0.034687 0.399860 0.131142
0.587767 -0.402837 0.100027
0.416212 0.185489 -0.183639
-0.633548 -0.284461 -0.128256
0.013976 -0.377573 -0.258113
-0.636335 0.275295 -0.277953
0.554887 -0.235885 0.343498
0.471925 -0.057230 -0.193956
-0.176846 0.732287 0.124580
0.223521 0.219090 0.257250
-0.367414 -0.659785 -0.006861
0.119982 -0.086878 0.114537
-0.068927 -0.029056 0.306613
0.830101 -0.220520 0.029770
-0.706115 0.128594 -0.294026
0.214027 -0.685433 0.017592
-0.766125 0.183094 -0.296227
0.733683 -0.100094 0.184780
-0.408469 0.355095 0.299038
0.345368 0.048418 0.306699
-0.828269 -0.043942 -0.037824
0.058220 -0.112529 0.252895
0.145822 0.947917 -0.034989
-0.575662 0.124807 -0.281865
-0.309497 -0.136284 -0.273350
0.057688 -0.412694 -0.256215
0.595997 0.302280 -0.159029
0.048207 -0.140484 0.310583
-0.198498 0.576039 0.126898
-0.157100 -0.172911 0.239932
0.471352 0.523305 -0.067774
-0.166698 0.390208 0.273566
-0.409852 0.553849 -0.231212
-0.524157 0.298962 0.111162
-0.794065 0.095237 0.192015
0.372531 -0.254398 0.334096
-0.122186 0.339982 0.118969
-0.626098 0.276990 0.066997
0.150015 -0.735187 -0.179023
0.185388 0.175801 -0.206213
-0.164829 0.049545 -0.247639
-0.058409 0.821377 0.088091
-0.122866 0.012433 0.149755
0.376003 -0.390542 0.219499
-0.105797 0.785662 0.093396
-0.474679 -0.476696 -0.223069
0.713816 -0.307834 0.086642
0.209075 0.257769 0.154410
0.625964 0.312614 -0.035922
-0.277983 0.609081 -0.222403
0.018426 0.281736 0.128593
-0.146932 -0.180663 -0.260746
-0.127925 -0.329149 -0.268492
0.066492 0.478756 -0.198029
-0.602022 0.241133 0.235181
-0.102349 0.618829 0.138794
0.646991 0.037974 0.172684
-0.252895 0.294252 -0.240271
0.289951 -0.341933 0.320612
0.278232 0.391581 0.215842
-0.371828 0.132833 0.081903
0.324655 0.622402 0.179630
-0.365598 -0.624342 -0.205853
-0.712403 0.156547 0.059300
0.547270 -0.434093 0.005536
-0.022439 -0.520873 -0.270794
-0.588450 -0.362071 -0.034030
-0.035515 -0.475917 0.281043
-0.095030 -0.130234 -0.252567
-0.149285 0.244481 -0.233620
0.621456 -0.205597 0.186177
-0.676232 0.352587 -0.269028
-0.809372 0.252098 -0.273776
0.301828 -0.190097 0.170069
-0.888165 0.194092 -0.079342
-0.099855 0.735023 -0.197361
0.333016 -0.423673 0.125359
0.655619 0.171956 -0.161744
0.434407 -0.519191 0.013063
-0.731590 -0.169176 -0.052148
0.683450 0.211927 0.093433
-0.920569 0.080481 -0.049713
-0.117029 -0.848275 0.043016
0.119531 0.954304 -0.090784
0.020267 0.811983 0.162880
0.958728 -0.124439 -0.100617
0.923483 -0.109036 0.110645
-0.270877 -0.741087 -0.251188
0.057515 0.586350 -0.191961
-0.739731 0.082557 -0.300185
-0.768659 -0.048737 -0.311382
0.432058 0.259702 0.372830
-0.200251 -0.624028 0.249181
-0.439277 -0.546597 -0.101906
0.106473 0.173810 0.130023
0.295447 0.747676 -0.023374
0.259420 0.617780 0.173129
0.127238 -0.053505 -0.226494
-0.178589 0.304238 0.289665
0.216573 0.873867 -0.137991
-0.429599 0.539789 -0.118053
-0.566715 0.267358 0.179411
-0.258110 -0.513265 0.051152
0.178086 0.205439 -0.205000
-0.168860 -0.266319 0.221441
-0.178572 -0.900286 -0.056485
-0.875095 0.060010 -0.258529
0.387510 -0.123360 -0.206238
0.128409 -0.415086 -0.249644
0.231807 -0.241838 0.317008
0.227120 0.810360 -0.161421
0.426131 0.275086 0.352363
-0.273978 -0.086674 0.077086
-0.395818 0.565048 -0.148758
0.428534 0.587803 -0.108930
0.512538 -0.144875 0.159677
-0.736024 0.138849 0.075926
-0.587182 0.220080 -0.276831
0.252944 0.826548 -0.142293
-0.577497 0.168552 0.270963
-0.278760 0.653926 -0.073417
0.140131 0.827035 0.175247
0.501476 -0.468546 0.018792
0.354887 0.685051 -0.107741
0.499312 0.462805 0.055753
-0.112417 0.269687 0.115376
0.749144 -0.074733 0.175148
-0.160237 0.317898 0.264637
-0.120097 -0.621250 0.071926
0.547193 -0.433605 0.079117
0.631570 -0.370940 -0.055224
-0.051222 0.510397 -0.207187
0.300412 -0.314656 -0.226827
-0.641760 0.228666 -0.281469
-0.575317 0.407382 -0.263653
-0.257203 0.105414 -0.252829
-0.344283 0.604366 -0.090077
-0.380352 0.279782 0.296867
-0.551411 0.278337 0.102854
-0.485781 -0.102357 0.055936
-0.021572 0.584204 0.144248
-0.004305 0.861380 -0.022099
-0.472673 0.508594 0.057750
-0.423533 -0.573566 -0.069663
-0.535458 -0.117683 -0.293641
-0.034427 -0.333592 0.290302
0.052872 -0.808391 -0.166909
-0.589546 0.318548 -0.270721
-0.467119 0.050022 -0.276354
-0.634380 0.180747 -0.283850
-0.954683 0.144128 -0.049205
-0.236721 0.230168 0.101013
0.512645 0.431831 -0.158621
-0.099799 0.149655 -0.235014
-0.832222 0.235061 -0.246515
-0.854792 0.218089 -0.238876
0.182061 0.668626 0.169043
0.314302 0.197345 -0.192568
0.587378 0.324084 0.172281
0.549239 -0.198535 0.186417
-0.215562 -0.096240 0.082026
0.349065 0.362389 -0.178644
0.099981 -0.379749 -0.250074
-0.684052 0.346870 -0.244355
-0.453386 0.323488 -0.257455
-0.187917 -0.465775 0.267202
0.673269 -0.339690 -0.083760
-0.438854 0.106814 0.147266
-0.671347 -0.078239 -0.304026
0.317581 0.080166 0.333139
0.146400 0.543250 0.157587
0.122282 0.213529 0.134081
0.681066 -0.060852 0.344600
0.287465 0.163850 -0.197274
0.517567 -0.045865 0.361304
0.607831 0.258348 -0.160730
0.254794 0.803130 -0.032038
0.693287 -0.191311 -0.181531
0.636936 0.005880 0.300834
0.450416 -0.357166 0.128571
-0.044976 0.773740 -0.189652
0.948359 -0.114779 -0.032276
-0.505942 0.055704 0.080789
-0.167817 0.044990 0.095652
-0.098538 -0.921093 0.039995
-0.893513 0.093923 -0.308669
0.452619 -0.315526 0.274261
0.584778 0.076258 0.293764
-0.780220 0.275035 -0.146815
0.001530 -0.497028 0.273160
-0.621512 0.225424 0.099838
-0.672923 -0.042333 0.072328
-0.471002 -0.079509 0.058811
0.078492 -0.788528 -0.095077
-0.497907 0.062616 0.195396
0.231001 0.476305 0.161325
-0.741334 0.135000 0.097148
0.767002 0.093580 0.134251
-0.349878 -0.480804 -0.299354
-0.113720 -0.633645 0.221051
-0.027863 -0.869843 -0.239535
-0.175983 -0.440203 0.269982
0.025552 0.274038 0.128776
0.004992 0.869053 0.066566
0.193680 0.757027 0.175835
-0.284942 -0.369817 -0.286039
-0.284605 0.649513 -0.073886
0.275214 -0.210209 0.165821
-0.316469 -0.650538 -0.307097
-0.052142 0.317998 0.124215
-0.634667 0.215410 0.087837
-0.029534 0.838402 -0.184024
-0.086901 -0.635174 0.193545
0.308684 0.150495 -0.196116
0.124443 -0.186314 -0.235304
-0.308565 -0.695207 -0.230142
-0.944742 0.152160 0.022463
0.010438 0.489540 -0.202666
-0.601653 0.411103 0.033945
0.343619 -0.158715 0.150034
0.397450 0.522738 0.180140
-0.387679 -0.558354 -0.307938
0.298551 0.707648 0.165489
-0.075825 0.374105 0.125573
-0.263826 -0.688607 -0.304540
-0.410695 0.384624 0.118689
0.477403 -0.487104 -0.034437
0.315313 -0.178788 0.323123
-0.168548 -0.349444 0.079514
0.009098 -0.510520 0.162612
-0.175851 0.515272 -0.218725
0.167935 0.639170 0.165805
0.419674 0.547752 0.163307
0.106882 0.015331 -0.224001
-0.134778 -0.028010 0.300418
-0.111471 -0.262987 -0.262670
0.124138 0.817430 -0.170759
0.439054 -0.110403 -0.200503
-0.626842 0.390467 -0.186049
-0.509152 0.051228 -0.280273
0.793540 -0.247443 0.118993
-0.858602 0.062410 -0.312785
-0.248804 -0.118720 -0.266449
0.059031 -0.102702 0.259799
0.467810 -0.310521 0.142232
-0.212525 -0.295901 -0.274398
0.649629 -0.024010 0.369664
-0.015008 0.268479 0.124561
-0.249281 -0.213447 -0.272588
-0.402548 0.369016 0.300496
-0.803717 -0.043307 -0.212016
0.252100 0.372640 0.320337
0.134177 -0.582139 -0.259843
-0.594624 0.378292 0.076507
0.882704 -0.180067 0.132878
0.111830 0.843731 -0.170238
-0.773248 -0.013504 0.034316
-0.401756 -0.387951 -0.298314
-0.419935 -0.583623 -0.041826
0.325645 -0.166693 0.128959
0.680587 0.233822 -0.001767
-0.463314 0.435413 -0.251199
0.231125 0.817899 0.055020
0.593527 0.023075 -0.177226
-0.313089 -0.714021 -0.099746
-0.342688 -0.119960 -0.275457
-0.052767 -0.526451 -0.274037
0.441534 -0.080433 0.314965
-0.871135 0.021470 -0.083448
0.114350 -0.087291 0.113975
0.214967 -0.074529 -0.219504
0.306211 -0.442521 0.310967
-0.243180 0.352368 -0.235608
-0.711915 0.286528 -0.284418
0.111152 -0.763809 -0.084745
-0.540046 0.222948 0.278024
0.195510 -0.270469 0.148988
0.227893 -0.675419 -0.042977
-0.223565 -0.275008 -0.274103
0.524692 -0.234329 0.143536
-0.227994 0.692576 -0.026548
-0.219592 -0.674048 -0.299397
-0.874725 0.033026 -0.119229
0.238622 -0.667497 -0.066283
0.455452 -0.503617 -0.027910
0.847645 0.040744 -0.149128
0.189157 0.325165 0.322371
0.221082 -0.670848 -0.257285
-0.715042 0.325237 -0.008512
-0.301136 0.210570 0.126827
-0.012377 0.136352 -0.227557
-0.775577 0.109178 0.099139
0.331582 -0.184818 -0.215510
0.050509 0.903726 0.111199
0.585729 0.289942 -0.160799
0.539223 0.421111 -0.002760
-0.374172 0.451760 0.102197
-0.063120 -0.137545 0.300186
0.891257 -0.111126 -0.157547
0.518736 0.439970 0.040652
0.364728 -0.266641 -0.217622
0.901844 -0.078471 0.100519
-0.302007 0.241221 -0.248352
0.318114 -0.075093 -0.209732
0.650955 0.041190 -0.170600
0.130636 0.962429 -0.124971
-0.695773 -0.218827 -0.040335
-0.125689 0.697622 -0.202224
-0.202551 -0.872820 -0.034025
-0.153476 -0.152057 0.232444
0.055046 0.148048 -0.220393
-0.089922 0.795852 -0.147705
0.217178 0.420289 -0.187461
-0.779758 0.275726 0.052304
-0.471825 0.383887 0.088545
-0.133317 0.763787 -0.056594
0.573408 0.400104 -0.130196
0.543039 -0.438188 -0.116155
0.765097 -0.004307 -0.162672
-0.093885 -0.638959 0.254834
-0.130327 -0.945384 -0.001289
0.268061 -0.253328 -0.225958
0.291391 0.129866 -0.199087
-0.084177 -0.852930 -0.298027
0.636864 -0.365854 0.092058
-0.348508 0.175695 0.243764
0.448885 -0.482455 -0.223503
0.192486 0.048790 -0.213708
0.164294 0.302948 0.228493
-0.848416 0.222740 -0.260291
-0.093522 0.318362 -0.223564
0.104639 -0.151211 0.108939
0.229624 0.458401 0.160042
-0.715098 0.324257 -0.134944
0.070120 0.558752 0.151330
0.361348 -0.529829 -0.234875
0.498205 -0.184120 0.144248
-0.502374 -0.145984 0.051552
0.017650 0.075347 -0.228626
-0.458538 -0.490574 -0.262423
0.640165 0.261447 0.134277
-0.120762 0.028289 0.099052
-0.716099 0.323944 -0.075372
-0.872211 0.014526 -0.039452
0.296063 0.417846 -0.180117
0.267319 0.415132 0.160843
-0.155469 -0.411060 0.273808
0.524984 0.256696 -0.168715
0.313638 -0.610916 -0.068642
-0.582526 -0.322826 0.032553
0.517053 -0.079341 0.359101
0.411064 -0.352490 -0.218738
0.342737 0.510400 -0.169724
-0.118720 0.775071 -0.019983
-0.111505 0.457509 0.127545
-0.001228 0.050500 0.118925
0.057346 0.501990 -0.197404
-0.103016 0.386712 0.123798
-0.705935 0.162579 0.214517
-0.625385 -0.276982 -0.224388
-0.407957 -0.143616 0.060683
0.270725 0.144118 0.322953
0.182436 -0.709614 -0.029175
0.331296 0.240807 -0.188156
-0.573478 -0.257456 -0.306249
-0.162876 0.741112 -0.106728
-0.191601 0.719547 -0.092235
-0.445566 0.359471 0.274802
0.892753 -0.067854 0.107957
-0.143785 0.329814 0.197609
0.953637 -0.128147 -0.082650
0.565231 -0.421367 -0.105710
0.855560 0.025858 -0.125943
-0.205856 0.283708 0.295510
-0.358403 0.424943 0.235507
-0.186788 -0.395478 0.271832
0.063732 0.570868 0.151502
-0.187239 -0.150391 -0.262632
0.096706 0.689896 -0.181573
0.771876 0.085864 0.140907
-0.082004 0.802573 -0.046938
-0.673855 -0.252264 -0.017054
-0.284891 0.648950 -0.120705
0.217592 0.351681 -0.191835
-0.551658 -0.392036 -0.132507
-0.485325 -0.263788 -0.298273
-0.031008 -0.530924 0.277932
0.448803 0.264767 0.248843
0.532345 0.255914 -0.168065
-0.629640 -0.036903 0.178191
0.167036 -0.147941 -0.228785
-0.299066 -0.400318 -0.289345
0.187077 0.269425 0.246206
0.454000 -0.088991 0.273215
0.589117 0.235842 0.179910
0.487499 -0.478519 0.095872
0.146738 0.197571 0.135380
0.150334 -0.046430 0.120025
-0.140505 0.759442 0.088946
0.322405 -0.174687 0.154588
-0.238772 0.484351 0.280132
0.582151 0.191803 0.176415
-0.286538 0.252123 -0.246180
0.640681 0.299454 -0.069141
0.487657 0.301433 0.174481
0.397783 0.606465 0.006943
-0.481355 0.332125 0.228350
-0.076885 0.056790 0.170935
-0.055371 -0.127105 0.301594
-0.809075 0.252611 -0.234926
-0.723390 0.317585 -0.191053
0.332572 0.305837 -0.183851
0.092464 -0.083755 0.112121
-0.195680 -0.343367 0.068018
0.378309 0.345264 0.316165
0.031086 0.760880 -0.183246
-0.593905 0.415730 -0.130428
-0.738044 0.040593 0.089488
-0.662738 0.363334 -0.192737
0.689536 0.050808 0.177556
-0.357718 -0.626674 -0.248430
0.394901 -0.187962 0.134177
-0.643863 0.244010 0.063186
0.619465 -0.207301 0.158981
0.841280 -0.213552 -0.167941
-0.507339 0.195798 0.279388
-0.005283 -0.850653 0.050825
-0.619152 0.247861 -0.278084
0.259193 0.168401 0.144198
-0.483170 -0.090824 0.056926
-0.512863 0.476023 -0.245330
0.570486 0.334924 -0.159355
-0.544574 -0.395733 -0.162368
0.418292 -0.029615 -0.197280
0.736969 -0.292115 -0.149296
-0.212414 0.278240 0.225302
-0.024561 0.777114 -0.187494
0.347452 0.596773 0.180149
0.222557 -0.661162 -0.256522
-0.677247 0.183213 0.078281
-0.355016 -0.624960 -0.276245
0.144140 -0.187949 0.110332
-0.240221 -0.185393 0.073946
-0.747890 0.040069 0.160760
-0.142867 0.495149 0.126984
-0.200263 -0.545794 -0.289308
0.838944 0.048526 -0.129499
0.744846 0.175346 -0.141481
0.201026 0.872445 -0.022322
-0.212836 -0.824887 -0.214477
0.446227 -0.080618 0.283283
0.408906 0.311300 0.281819
0.730696 -0.295362 0.050987
0.112079 0.679409 0.163082
0.125194 -0.183245 -0.235035
0.408387 -0.241778 0.194313
-0.799476 0.261300 -0.039815
0.525105 -0.406511 -0.211369
0.391859 -0.551173 0.029296
-0.413102 -0.291347 -0.293178
-0.157550 0.633721 -0.209365
0.921826 -0.150642 0.120449
-0.049595 0.052162 0.182693
-0.118215 0.775340 -0.035179
0.834944 -0.217900 -0.109680
0.307715 0.405889 0.370411
0.244972 0.509762 -0.179062
0.551753 0.372312 0.166623
0.326199 -0.260640 -0.220900
-0.095821 0.451243 0.128634
0.092896 0.933857 -0.138177
0.042400 -0.230090 0.241480
0.055681 0.458593 0.143513
-0.262209 -0.790805 -0.050090
0.110578 -0.764033 -0.056544
-0.684565 0.179018 0.257232
0.492592 0.015264 -0.187327
-0.253176 0.391799 -0.234022
0.293273 0.272360 -0.189741
0.120447 -0.758178 -0.271044
0.418582 -0.530944 0.038331
-0.836411 0.221773 0.043445
-0.193029 -0.510263 0.096954
-0.269175 -0.738671 -0.275727
0.415054 -0.535397 -0.203313
-0.447964 -0.508390 -0.242335
0.775477 0.091657 0.085385
-0.626080 -0.284138 -0.181924
0.052533 -0.229687 0.124180
-0.162392 0.387605 0.257280
-0.126136 -0.008912 0.096148
-0.793759 0.264154 -0.236626
-0.018873 -0.273700 0.295634
0.258343 0.774815 0.092138
0.470279 0.346430 0.175724
0.223734 0.203343 0.338561
0.385155 0.166911 -0.187788
-0.279471 0.600887 0.120797
0.717281 0.158823 0.137220
-0.621163 0.387578 0.074581
0.638876 0.099776 -0.167979
0.370646 -0.513777 -0.232958
-0.636204 0.384830 0.006348
-0.164777 -0.362162 0.276069
0.622931 -0.061070 -0.179843
0.222912 0.498204 0.161964
-0.254570 -0.006888 -0.259803
-0.884628 0.065944 -0.223386
0.045235 0.632858 0.153731
0.669639 0.229001 0.099769
-0.094011 -0.918622 -0.087304
-0.387676 -0.084151 0.066437
-0.280379 0.652600 -0.087578
-0.861428 0.048426 -0.292731
-0.251880 -0.766314 -0.250736
-0.562029 0.013677 0.119953
0.234606 0.847070 -0.122583
0.057692 -0.491762 -0.261302
0.486328 -0.113700 0.178162
-0.095512 -0.016708 0.304879
0.144807 -0.739534 -0.235404
-0.177321 -0.318383 0.233312
-0.923650 0.165890 -0.271952
-0.217567 0.316783 -0.235462
0.626872 0.332211 -0.145281
0.168463 0.760032 0.173631
0.162090 0.900554 0.100839
-0.027439 -0.448714 -0.266628
-0.633870 -0.253744 -0.287526
-0.044473 0.052742 0.166167
0.655257 0.254395 0.066337
-0.104390 0.724967 -0.198440
0.080140 0.925616 0.048264
0.284410 0.396722 0.280426
-0.192377 0.719181 -0.062599
0.331369 -0.596826 0.027418
-0.680995 -0.061333 0.246332
-0.779740 0.020858 -0.307959
-0.375707 -0.607404 -0.224568
0.434370 -0.346138 0.268991
-0.391421 0.568881 -0.079292
0.697868 -0.321002 -0.066407
0.524406 0.423207 0.089331
0.611398 -0.074313 0.368397
0.255371 -0.394534 -0.236249
-0.365938 0.067271 0.078245
0.547078 -0.236964 -0.198372
-0.902785 0.181816 -0.247218
-0.022466 -0.863984 0.001366
0.292911 0.076158 0.141470
-0.512423 -0.459324 -0.051757
0.245423 -0.232106 0.244004
0.281848 0.085195 0.140999
-0.416743 0.123648 0.167672
0.199752 0.016673 -0.215084
0.042520 0.071050 0.117330
-0.614996 -0.278652 -0.287904
0.616822 0.265143 0.184430
0.575783 -0.413552 -0.125508
-0.133342 -0.047095 0.172671
-0.553298 0.350847 0.078672
0.932657 -0.108153 -0.153419
0.138965 0.461513 0.151621
-0.072450 0.688636 0.146128
0.197134 0.747124 -0.168341
0.430351 0.267443 0.363180
0.433580 -0.520472 -0.075448
0.889949 -0.050556 0.036515
-0.588046 0.251353 0.191386
0.120426 0.955303 -0.047163
-0.170611 -0.037079 0.090107
0.233889 0.358481 0.263746
0.394785 0.336235 0.248982
-0.237456 -0.778101 -0.289145
-0.389989 -0.151736 -0.281999
0.404533 0.580000 0.099119
-0.599082 0.242152 0.073555
-0.249963 -0.483394 -0.290020
0.505691 -0.149493 0.231611
0.196040 0.234420 -0.201428
0.179404 0.334210 0.147277
0.748177 -0.281684 0.117084
0.178078 0.903022 -0.023403
0.097067 0.622106 -0.185899
0.134989 0.161188 0.131922
-0.884924 0.036936 -0.068807
0.672481 0.126296 0.180790
-0.378396 0.152771 0.193336
-0.779829 0.006684 0.034989
0.340195 0.182916 0.359155
0.547330 -0.434417 -0.044310
