-0.123881 -0.497146 -0.375520
-0.367690 -0.677141 -0.104750
0.387420 0.492657 0.292504
0.518797 -0.196620 0.164869
-0.239565 -0.377834 -0.015127
0.208584 0.499329 0.301757
0.359680 -0.560288 0.055339
0.529207 0.247875 0.264746
-0.559683 -0.218205 0.153663
-0.576321 -0.070750 0.107699
-0.172972 -0.274678 0.019905
0.693715 -0.461512 0.138799
-0.447121 0.100007 -0.303622
-0.188686 -0.375857 -0.005295
-0.698880 0.151457 -0.160639
0.683759 -0.088157 0.212703
0.218217 -0.414040 0.274720
0.317759 0.003728 0.171891
-0.014699 0.493768 0.218481
0.243089 0.189155 0.412242
-0.715965 0.172102 -0.101503
-0.629992 0.184709 0.138488
0.037715 0.243498 0.297017
0.560668 0.588427 -0.009859
-0.339403 -0.205045 0.112474
-0.244140 0.097245 0.088723
-0.323684 0.617347 -0.166816
0.663966 0.303063 -0.053668
0.769119 -0.309318 0.013188
-0.459274 -0.650485 -0.471255
0.272121 0.408938 0.466039
0.759359 -0.099632 -0.113950
0.038819 0.408466 -0.145898
-0.061316 0.375685 -0.171615
0.349713 -0.399924 -0.266627
0.183820 0.483540 -0.102573
-0.432303 -0.509152 -0.079663
-0.313640 0.251503 0.323160
0.557218 0.027510 -0.134108
0.695177 0.166699 -0.045285
0.292037 0.460054 -0.087762
-0.659307 0.279728 -0.303204
-0.070932 -0.549240 -0.377221
0.100104 0.651938 -0.080924
0.563682 0.647611 0.148038
0.128245 -0.589922 -0.349400
-0.536016 0.041930 0.235906
-0.622134 0.221414 0.259554
-0.509962 -0.712071 -0.298026
-0.649076 0.122536 0.019509
0.456262 0.116275 -0.133192
0.158287 0.330742 0.427782
0.648302 0.336746 0.024759
0.095973 -0.183401 0.089691
-0.121266 0.430780 0.206796
0.559850 0.703274 0.119803
-0.113176 -0.180630 -0.303791
-0.526522 -0.583375 -0.113421
0.702130 -0.574213 0.115517
-0.208251 -0.238666 0.021325
0.692813 -0.088481 0.172730
0.259844 0.695557 -0.041809
0.538729 0.772491 0.157380
-0.585201 -0.051643 0.131627
0.212022 -0.484143 -0.310617
-0.409239 0.059946 0.207355
0.213571 0.309779 -0.135371
-0.547469 -0.391583 -0.391952
-0.438175 0.362645 -0.244091
-0.205146 -0.190423 0.032530
-0.332484 -0.452353 -0.404175
-0.184713 -0.255276 -0.333453
0.158665 -0.216796 -0.261555
-0.680891 -0.048453 -0.078027
0.623602 -0.335342 -0.201811
-0.380870 -0.697867 -0.467216
-0.122719 0.324472 0.299703
0.546715 0.623405 0.243125
-0.152047 0.544216 0.204232
0.773873 -0.403958 0.069020
-0.679440 0.332307 0.273408
0.246014 -0.362775 0.291151
-0.506444 -0.691610 -0.330301
0.250078 -0.383939 -0.281506
0.786888 -0.402807 -0.186521
-0.657114 0.140859 0.022063
-0.379662 0.538225 0.160874
-0.662213 0.008083 -0.008139
-0.716029 0.345951 -0.242589
0.734078 -0.274915 0.140944
-0.318045 -0.106398 0.030196
-0.037530 -0.575801 -0.376905
0.119538 0.405018 -0.131749
0.198653 0.069797 0.164453
-0.417222 0.086287 0.221413
-0.443812 0.238464 0.215838
0.227900 0.661423 -0.055231
0.731619 -0.301744 -0.174457
-0.756291 0.384131 -0.094702
-0.462061 0.152046 -0.294913
0.295261 0.262162 0.340348
-0.009483 -0.121685 0.083815
-0.374639 0.024526 0.082391
-0.628040 -0.284745 -0.120757
-0.122662 -0.023057 0.088919
0.341671 0.256248 0.231956
-0.744223 0.522413 -0.260783
-0.513911 -0.745489 -0.253303
0.580130 0.708810 0.020264
0.330871 -0.296844 0.108074
-0.022722 0.637085 -0.106882
-0.601561 0.153308 0.037669
-0.011219 0.690335 -0.093022
-0.317728 -0.490703 -0.409901
0.414182 -0.062832 0.175031
0.441427 0.739234 0.001352
0.324224 0.022676 -0.178204
0.359198 0.170090 -0.139259
0.739197 -0.327178 0.160692
-0.660505 0.286809 -0.301865
-0.178932 -0.612175 -0.055571
-0.170573 0.371629 0.376056
0.273839 0.267311 -0.133599
0.727579 -0.001076 -0.052854
-0.073139 -0.438797 0.067710
-0.048841 -0.621963 -0.033702
0.526650 -0.254006 0.153673
-0.400870 0.583987 0.166508
0.603525 0.033273 0.231180
0.566925 -0.495412 0.107912
-0.416360 0.138818 0.174866
-0.359341 -0.450796 -0.408792
0.185291 0.121137 -0.182166
-0.449584 0.109101 0.266672
0.381301 -0.161230 -0.208191
0.631086 -0.363851 -0.206711
-0.485568 -0.613564 -0.112510
0.196798 0.110921 0.269275
-0.199126 0.452860 -0.180060
0.276579 0.336387 0.450873
0.251067 0.241779 -0.143431
0.542814 0.578236 0.297191
-0.576158 -0.413268 -0.246821
0.777596 -0.266866 -0.059008
0.360151 -0.143026 -0.208085
-0.157413 -0.407638 -0.006522
-0.432005 0.183741 0.207865
0.557604 0.787224 0.061519
0.150182 -0.214486 -0.262612
0.370519 0.695744 0.334137
-0.657065 -0.069964 -0.024388
-0.222316 0.066801 -0.269420
-0.360413 -0.254624 0.202985
-0.620387 -0.262475 -0.172879
0.504013 0.725293 0.350048
-0.407527 -0.595484 -0.094112
-0.409150 -0.401738 -0.051715
0.122717 -0.572363 0.222192
0.304866 0.676252 -0.037749
0.279524 0.674388 -0.042840
0.063692 0.513728 -0.118107
0.254769 -0.334013 -0.269637
-0.799193 0.496680 0.004441
-0.227375 0.290606 0.347710
-0.400829 -0.434799 -0.057464
0.495561 0.561721 -0.027769
0.106853 -0.553074 -0.345231
-0.563737 -0.624956 -0.129880
-0.283380 0.344235 0.349185
-0.314699 -0.253240 -0.001546
-0.568637 0.192189 -0.305750
0.557508 -0.562679 0.091348
0.028485 0.388020 -0.152312
-0.420141 0.521078 -0.205846
0.576920 0.688677 0.055807
0.029100 0.325935 -0.165880
-0.686379 0.213437 0.032652
0.380026 0.172553 -0.134870
-0.014324 -0.514539 -0.359119
-0.678152 0.285332 -0.305450
0.721352 0.020933 -0.105244
0.650199 -0.550108 0.111238
0.739055 -0.064555 -0.120813
0.219477 0.263280 0.424217
-0.125076 -0.556765 -0.033414
-0.502795 0.467013 -0.233025
0.607591 -0.485784 0.117544
-0.267188 0.385908 -0.207385
0.480562 -0.579021 0.073536
0.201170 -0.016021 -0.209459
0.016578 -0.275990 -0.300841
0.480540 0.029291 -0.147877
0.256833 0.669759 -0.048051
0.041300 0.365925 -0.154814
-0.415879 -0.353659 -0.397828
0.368623 -0.159904 -0.210240
0.053901 -0.274647 -0.293652
0.508929 0.722981 0.330079
-0.308812 -0.347056 -0.376598
0.545997 0.574484 0.286098
-0.448317 -0.347394 -0.046973
-0.522616 -0.763192 -0.200219
-0.538207 0.548897 -0.221521
0.595862 0.472666 0.147282
-0.423843 0.145165 -0.289371
-0.606980 0.483091 0.106741
-0.009264 -0.470602 0.220242
0.268382 0.489895 -0.085555
0.120319 0.370041 0.350585
-0.464909 0.126475 0.267670
-0.430870 0.025966 -0.316937
-0.315326 -0.522716 -0.416512
-0.328933 0.533336 0.169166
-0.074785 -0.579267 -0.384550
-0.638909 -0.142861 -0.187832
-0.721494 0.348372 -0.220266
0.083619 0.135664 0.371002
0.172560 0.113750 0.382599
-0.343200 0.172506 -0.268452
-0.642720 -0.074502 -0.226484
0.218206 0.126957 -0.174804
0.635822 -0.006401 0.228401
0.244762 -0.050743 -0.209060
-0.724725 0.414510 -0.259692
-0.124026 -0.524805 -0.381642
-0.558166 0.499571 0.119388
0.597821 0.347663 0.240229
-0.520884 -0.681754 -0.134060
-0.235181 -0.500530 -0.396821
0.245015 0.130446 -0.169084
0.603608 -0.130630 -0.160390
-0.327884 0.163166 0.087784
0.352904 0.528915 -0.061346
0.227552 -0.597562 0.022722
-0.527624 -0.775293 -0.168123
0.608450 -0.081036 0.206898
0.614831 0.511687 0.031248
0.682455 0.110901 0.056626
-0.617412 0.305324 -0.289826
0.075849 -0.496318 -0.338449
-0.270722 0.251226 0.331026
-0.168305 0.503161 0.192182
-0.668076 0.062322 -0.225060
-0.059038 -0.030069 0.308131
0.724260 -0.223220 -0.158511
-0.475740 0.029177 0.244228
-0.039555 -0.584941 0.189450
0.729800 -0.276200 0.161000
0.018684 -0.275254 0.055175
-0.466498 -0.544045 -0.449133
-0.182877 0.241615 0.131853
-0.659570 -0.003076 -0.010110
0.202644 -0.277716 0.088607
-0.363162 0.593443 -0.179375
-0.622808 0.101429 0.174283
0.174430 -0.475117 -0.315570
0.528935 -0.545412 -0.265588
-0.127008 0.617230 -0.130518
-0.321756 -0.173964 -0.340844
-0.003437 -0.104403 -0.266725
-0.239354 0.024558 0.073589
-0.358662 -0.287079 -0.017123
0.588226 -0.111319 -0.158975
0.080545 -0.023024 -0.233280
0.445426 0.130059 0.223310
-0.541518 -0.399509 -0.411954
-0.542380 -0.520882 -0.309426
-0.381940 -0.238885 -0.366266
0.212959 -0.536827 0.033411
0.571719 0.170582 0.255565
-0.152368 0.032695 0.091447
0.190179 0.190313 -0.166018
0.419487 -0.570476 -0.291326
0.382578 -0.106396 -0.195871
0.180388 0.462272 0.247571
-0.080881 0.545856 -0.137728
0.513653 0.709840 0.319770
-0.053148 -0.447056 0.217326
-0.561752 0.326332 -0.274917
-0.178882 -0.517608 -0.034722
0.252165 0.132847 -0.167234
0.250414 0.076406 -0.179996
-0.265221 -0.006609 0.061943
0.760246 -0.241787 -0.002290
-0.297828 0.297894 -0.232440
-0.069212 -0.281890 -0.317986
0.276177 0.245787 0.430833
-0.341127 0.287979 -0.242622
-0.230745 -0.494050 -0.039109
-0.227381 -0.518211 -0.399277
-0.651437 -0.033172 -0.221352
0.556020 0.240584 -0.087373
-0.513337 -0.001315 0.230564
-0.687819 0.151048 -0.209468
-0.465900 0.464924 -0.226672
-0.681072 0.098510 -0.196731
0.163526 0.433782 0.334795
0.062391 0.281101 -0.169612
0.077086 -0.070137 0.233329
0.377869 0.166658 0.218898
0.439085 -0.527053 0.290607
0.121868 0.442259 -0.123112
0.321554 -0.538286 0.053146
-0.332973 -0.650202 -0.447866
-0.350125 -0.479630 -0.057979
-0.201290 0.483487 0.182836
0.331129 0.541746 0.292925
0.688753 -0.104126 0.203496
0.067897 0.158491 -0.195615
0.263396 0.236395 -0.142341
0.324190 0.188902 0.213886
-0.622147 -0.302877 -0.132204
-0.356998 -0.721548 -0.112561
-0.290652 -0.454385 -0.041432
0.057193 -0.247037 -0.286960
-0.641349 0.184872 0.188831
-0.353794 -0.237520 -0.005302
0.171291 -0.478512 -0.316898
-0.669462 0.263955 0.260188
-0.662367 -0.124010 -0.098907
-0.587825 0.006044 0.096376
0.188560 0.110643 -0.183874
0.561400 -0.335699 0.325464
0.788585 -0.418627 0.015568
-0.483890 -0.261297 -0.390034
0.573256 0.418946 -0.044883
-0.411632 0.129317 0.161580
-0.752527 0.309191 -0.050490
0.180824 0.066826 0.160506
-0.032861 0.007486 0.321242
-0.592073 -0.470073 -0.129899
0.778871 -0.357358 0.008913
0.175997 0.602549 -0.077792
-0.333661 0.354884 0.342245
-0.510039 0.001160 0.231719
0.597222 0.111478 0.247250
-0.608636 -0.001855 0.195290
-0.637932 0.155050 0.197896
0.611937 0.480314 0.069623
-0.113250 0.221480 0.140275
0.304181 0.555403 0.290958
-0.557254 0.142216 0.254084
-0.023341 -0.358552 -0.326409
0.199623 -0.644279 0.007269
-0.462709 0.282070 -0.266379
-0.602403 0.141283 0.051193
0.706723 0.115590 -0.055039
0.622886 -0.317663 0.157418
-0.331334 0.508854 0.163327
-0.502847 -0.570618 -0.444677
0.108260 0.710540 -0.066503
-0.360094 0.206462 -0.264089
-0.108881 -0.422300 -0.000790
0.367215 0.669036 0.327641
-0.127167 0.592300 -0.136041
-0.609566 -0.193550 -0.042851
0.304575 0.276057 0.339706
-0.366073 0.444738 0.142782
-0.343591 0.312950 0.117891
-0.649437 0.311230 0.061026
0.129938 0.577505 0.263648
-0.547536 0.270618 -0.284569
0.398758 -0.075705 -0.186120
0.587253 0.614695 0.070047
0.211864 0.023753 0.156746
0.401687 0.183179 -0.128527
0.607760 -0.470114 0.228737
0.150998 -0.498783 0.243630
0.616449 0.100383 0.248356
-0.014940 -0.597250 -0.377460
0.205835 0.215510 0.411170
-0.584033 -0.269841 -0.328454
-0.217524 0.225967 0.122006
0.440902 0.679725 0.343606
-0.056514 0.185185 -0.212710
-0.381975 -0.257162 -0.014836
0.515672 0.382061 0.291818
-0.674828 0.309311 -0.299551
-0.076451 -0.144437 -0.289032
-0.047055 -0.220979 -0.300471
-0.128407 -0.068691 -0.281935
-0.452998 0.192527 0.284426
-0.521251 0.288739 -0.275721
-0.062455 -0.606100 0.156277
-0.195977 -0.338204 -0.353808
-0.006606 -0.399956 -0.332442
-0.425650 -0.604768 -0.099505
-0.429190 0.261869 0.131820
-0.081924 -0.464018 -0.005005
0.266855 -0.112098 -0.218500
-0.150296 -0.368924 -0.352142
-0.550850 -0.354440 -0.407130
0.623135 -0.441417 -0.225273
-0.711957 0.381988 -0.289990
0.145786 0.231135 -0.165221
0.469623 0.010380 -0.154061
0.066612 -0.266003 0.066065
-0.685093 0.220762 -0.278272
-0.659301 0.035616 -0.242340
0.006857 -0.585767 0.197840
-0.273290 0.537071 0.180266
0.533346 0.150495 -0.111414
0.541960 0.496531 -0.033566
0.421369 -0.212958 0.143274
0.080201 0.514731 0.240628
0.061035 0.361812 -0.152076
0.485393 -0.393359 0.328622
-0.327029 0.371780 0.220743
-0.068518 -0.508477 0.103838
0.768036 -0.420523 -0.193907
0.596698 0.444489 0.166479
-0.575751 0.249837 0.274384
-0.229095 0.066563 0.084740
-0.420005 0.242253 0.106954
0.738574 -0.192802 -0.149164
-0.203111 -0.598591 -0.057043
-0.338497 0.447288 0.213886
-0.458550 0.421728 0.132308
-0.481281 -0.332989 -0.049887
0.479815 -0.070670 0.185425
-0.201810 0.188717 0.116699
-0.503824 -0.738549 -0.303776
-0.343207 -0.571248 -0.076892
-0.312519 0.535073 0.172580
0.515849 0.714113 0.306537
0.660766 -0.237951 -0.173484
-0.126164 -0.549666 -0.387515
0.467429 -0.340549 -0.231801
-0.613502 -0.257019 -0.207912
-0.144339 -0.188156 0.044260
-0.216673 0.068879 -0.267920
-0.755579 0.276882 -0.010652
0.525500 0.690299 0.283014
-0.503830 -0.721732 -0.317422
0.398231 0.092153 0.206240
-0.521262 -0.108851 0.205402
-0.083676 0.428695 -0.164063
-0.577405 -0.274586 -0.354050
-0.259649 -0.231680 0.013372
-0.363975 -0.437091 -0.406628
0.215183 0.033853 -0.195880
0.384037 0.353070 0.261117
0.703175 0.095950 -0.023300
0.664865 -0.098072 0.213563
-0.529770 -0.258820 0.053752
0.515775 0.406706 0.297268
-0.227701 -0.661563 -0.430927
0.658420 -0.454848 -0.221716
0.144559 -0.668883 -0.008323
-0.142716 -0.034747 0.291646
-0.623912 0.439382 -0.261484
0.190361 -0.347675 -0.284543
0.275908 -0.164164 0.127162
-0.352481 -0.030793 0.040497
0.642253 0.336085 0.052180
-0.235491 0.571755 0.194890
-0.279852 0.334731 -0.221002
-0.538209 -0.611977 -0.253888
0.406897 0.614932 0.323047
0.522842 0.731998 0.260915
-0.626489 -0.234811 -0.168255
-0.237743 -0.076509 -0.303851
-0.638333 -0.019896 -0.290384
-0.673764 -0.122433 -0.049540
0.236597 0.557125 -0.076610
0.090664 0.359574 -0.147097
-0.024990 0.147724 0.261453
-0.259500 0.235916 -0.239019
0.106888 0.342289 0.213405
0.027468 0.293603 -0.173307
0.493233 0.054318 -0.140017
0.613891 0.229199 0.265143
-0.415427 0.401618 -0.231301
-0.212364 0.513551 0.186335
0.705762 -0.477504 -0.217965
0.805381 -0.534990 0.035543
0.273939 0.370218 0.457842
0.548954 -0.021774 -0.146495
-0.446885 -0.277663 -0.386807
0.078693 -0.304217 0.059875
0.179720 -0.021670 0.140799
0.770050 -0.137689 -0.130515
-0.205998 0.108831 0.098321
-0.524468 0.297862 0.294439
0.257025 0.252973 0.428880
0.213446 -0.117494 0.125911
-0.378546 -0.479698 -0.063243
0.041534 0.101702 -0.212999
0.205152 -0.080057 -0.222835
-0.604444 -0.410780 -0.089776
0.396922 0.347257 0.262216
0.643555 -0.210370 -0.170585
-0.430100 0.170701 0.210001
0.019631 -0.520605 0.214559
-0.192716 0.499817 0.186937
-0.162283 0.601136 0.214886
0.361479 0.052072 -0.164846
-0.274330 -0.290990 -0.357874
-0.652653 0.130650 0.020637
-0.510832 0.043044 -0.327941
-0.749871 0.400004 -0.136139
-0.694657 0.001244 -0.057258
-0.633459 0.169833 0.165992
-0.476653 -0.726553 -0.135763
0.325868 -0.101952 -0.205366
0.579190 0.466017 0.226783
-0.361130 0.091396 0.065827
0.007545 0.410965 0.204342
0.667022 0.081094 0.149454
0.278553 0.010446 -0.189335
0.838767 -0.450307 -0.181691
-0.068624 -0.353720 -0.333707
0.553206 0.646425 0.195558
0.063611 0.333013 0.197518
-0.396626 -0.490919 -0.424520
-0.660921 0.254585 0.219122
0.121412 -0.180493 -0.260435
0.509499 -0.412999 -0.239998
-0.325873 -0.495347 -0.412429
-0.640812 0.505288 0.105384
-0.009455 -0.455571 0.223519
-0.613097 -0.157412 -0.290710
-0.292382 0.274031 0.146254
0.423010 -0.343239 -0.240598
-0.330106 0.368096 0.345813
-0.585571 0.027750 -0.345115
0.357793 -0.470023 -0.280583
0.651098 -0.058019 0.219847
-0.315801 -0.287712 -0.009346
-0.034447 -0.465163 0.216790
0.497887 -0.197952 0.160713
0.815648 -0.419909 -0.103665
0.426049 -0.257008 -0.221034
-0.011392 -0.283915 0.047711
-0.527939 -0.220222 0.179626
0.647253 -0.320160 0.161368
0.188204 -0.191815 0.104871
0.527711 0.726796 0.243508
0.750937 -0.150123 -0.035463
-0.307618 0.212324 -0.253105
-0.621370 0.442000 -0.260437
0.727864 -0.250487 0.148694
-0.139583 0.445481 0.276246
0.279341 -0.010006 -0.193696
0.188167 0.475166 0.415872
0.046405 0.147977 -0.201902
0.798456 -0.403085 -0.040941
0.513990 -0.447664 -0.246808
0.468813 -0.267149 0.140094
0.389781 0.712627 -0.014050
-0.599172 -0.028967 0.175275
0.469926 0.206777 0.244741
-0.135542 0.589748 -0.138150
-0.090679 0.546704 -0.139350
0.698961 -0.465254 0.138943
0.645705 -0.328803 0.159178
-0.776972 0.443112 -0.050751
-0.543671 -0.363885 -0.423683
-0.178772 -0.360259 -0.000026
0.068543 -0.448565 -0.329275
-0.308491 0.285406 0.118304
-0.169570 0.065206 -0.260030
-0.426277 0.256692 0.123084
-0.447579 -0.276151 0.182142
-0.665894 0.281289 0.219509
0.466796 -0.507255 0.086809
0.698877 -0.105023 0.159228
0.376922 -0.322943 -0.244637
0.240086 0.758930 -0.031493
-0.017544 0.155236 0.196554
-0.082528 0.379734 -0.174641
0.379012 0.080761 -0.155285
0.399670 0.736345 -0.006996
-0.303913 0.246722 0.323903
-0.018047 0.034883 -0.238728
0.413425 -0.120424 -0.193266
-0.702869 0.244037 -0.218198
-0.535053 -0.127976 0.198641
-0.077158 -0.046168 0.301237
0.234164 -0.423736 0.275529
0.176145 -0.387830 -0.296018
0.424769 0.525639 0.306670
-0.384709 0.120734 0.067938
-0.635181 -0.225237 -0.137411
-0.301363 -0.610755 -0.433335
-0.552242 -0.138625 0.055883
-0.232946 0.286151 -0.223045
0.607116 0.534166 0.047259
0.051225 -0.003093 -0.234303
0.184872 0.093044 0.268541
0.235576 -0.389718 0.283286
0.136593 0.347814 0.427538
-0.141911 -0.092330 -0.289639
0.418225 0.059656 -0.152694
0.477925 0.117166 -0.128995
0.195752 -0.296730 -0.272321
-0.779975 0.420479 -0.019002
-0.627455 -0.194098 -0.197071
-0.408786 -0.022738 0.245152
0.358537 -0.232161 -0.228027
0.495640 -0.510401 0.304722
0.686945 0.108403 0.038706
0.162430 0.060583 0.288340
0.126851 -0.081609 0.117826
0.162188 -0.536404 0.237407
0.328020 0.062022 -0.168833
0.519881 0.255299 0.264660
0.648340 0.307106 0.048690
0.219087 0.187994 0.407554
-0.182781 0.353885 0.369891
0.642166 0.158088 0.197310
-0.133326 0.325897 0.345682
-0.740763 0.353098 -0.138474
-0.569500 0.100677 -0.326076
0.526838 -0.122847 -0.172854
-0.682805 0.114565 -0.202081
0.685748 0.043318 0.096947
-0.642285 0.402903 0.083006
-0.517907 -0.077060 0.213028
0.706849 0.007478 0.032315
-0.564757 -0.529794 -0.202730
-0.203243 -0.475709 -0.385453
-0.609161 -0.325217 -0.171749
-0.667802 0.139146 -0.288749
0.425713 -0.200408 0.146842
0.661874 0.008769 0.231145
-0.536618 -0.555558 -0.306836
0.393261 0.173055 0.223150
-0.143267 0.613471 0.221116
-0.651222 -0.174517 -0.107365
0.506061 0.705745 0.356843
-0.504587 -0.405590 -0.070190
-0.125879 0.227152 -0.216272
0.486518 0.482911 -0.046807
-0.627106 0.176600 -0.319984
-0.233041 -0.217285 0.021459
-0.028450 0.642292 -0.106792
0.050361 0.051347 -0.222466
0.643674 0.203847 -0.079280
-0.640402 0.240601 0.047130
-0.102519 0.027725 0.189113
-0.344978 0.438371 0.246359
-0.367869 0.545869 -0.190728
-0.314207 0.374580 0.161482
0.678126 -0.333008 -0.191226
-0.337345 -0.419032 -0.397730
-0.649509 -0.004942 -0.252877
-0.429649 0.109643 0.257648
0.004150 -0.134900 0.083421
-0.603280 -0.094186 -0.019793
-0.543192 -0.508603 -0.315801
-0.532751 -0.332016 -0.414643
0.000908 0.364209 0.192813
0.636242 0.282297 0.122630
-0.096836 0.033563 0.141477
-0.641433 0.474504 0.098486
0.420323 -0.520052 -0.280059
-0.125445 -0.011072 0.108445
-0.338404 0.389354 0.257005
0.648220 -0.408129 0.142161
-0.297527 -0.036656 -0.306110
0.356060 -0.007538 -0.178983
-0.560589 0.053457 0.233908
0.772157 -0.347320 0.030589
-0.620850 -0.072570 -0.325248
0.171421 -0.422718 -0.304579
-0.020990 -0.427589 0.227556
0.451568 0.709555 -0.003315
-0.532126 0.587224 -0.211951
-0.682726 0.414497 0.077635
-0.444667 -0.017438 -0.329050
0.214169 0.134006 0.217416
0.779522 -0.436390 0.070289
0.141293 -0.150141 0.105391
-0.590474 0.468839 0.106648
0.466215 -0.225125 -0.206589
-0.556405 -0.094351 -0.366637
0.557120 -0.332790 0.342122
0.785759 -0.260791 -0.155433
0.109566 0.257730 -0.166050
0.055683 -0.428081 -0.327136
0.061180 -0.180360 -0.271530
0.777960 -0.306771 -0.028174
0.176933 0.459740 0.440503
0.200492 0.280152 -0.144316
-0.410746 0.408646 -0.228888
-0.073180 -0.391963 0.029811
0.791386 -0.426601 -0.190934
-0.613621 0.515122 -0.242892
-0.034894 -0.558375 -0.005017
0.628497 -0.417884 0.136368
-0.748305 0.215684 0.006788
0.194943 0.480372 0.327629
0.499328 0.301278 -0.084468
-0.067432 -0.307288 -0.323254
0.554631 -0.480912 0.322115
-0.347693 -0.260585 0.186698
0.576505 0.589750 0.138100
0.197150 -0.102910 -0.229350
0.167713 -0.075933 0.126624
-0.095466 -0.089851 0.288229
-0.440783 -0.625293 -0.106823
-0.637003 0.320271 -0.290150
0.431427 -0.087169 0.172853
0.589582 0.497798 -0.024491
0.058475 -0.598823 -0.008783
0.371903 -0.026026 -0.180131
-0.007969 -0.054455 0.312189
-0.349588 0.442974 0.145438
-0.642309 0.528599 -0.245220
0.116256 0.145421 0.379180
-0.708268 0.319177 -0.255306
0.185255 0.127946 -0.180672
-0.553377 -0.075628 0.206792
-0.497154 -0.255154 -0.035666
0.480333 0.076747 0.218008
0.733890 -0.120573 0.016269
0.632521 0.226855 0.184251
-0.409610 -0.138387 0.219514
-0.575149 -0.134286 0.154154
0.366933 -0.442914 -0.272920
-0.262996 -0.002043 -0.292105
0.698998 0.055119 -0.101838
0.312771 -0.584027 0.041444
-0.676837 -0.048290 -0.096175
-0.571192 0.196892 0.263559
-0.528169 -0.650058 -0.267540
-0.645430 -0.233661 -0.085012
-0.557640 -0.188810 0.120680
0.550321 0.565206 -0.016888
-0.517328 -0.216922 -0.386431
-0.505274 -0.629745 -0.119715
-0.726596 0.104945 0.000358
0.051877 0.169286 0.372549
-0.063083 -0.033474 0.306634
0.684030 0.020100 0.123468
-0.105514 0.373215 0.183604
0.404042 0.104812 0.210103
0.570344 -0.332911 0.283447
0.484443 -0.572870 0.075608
0.524686 0.100919 -0.123939
0.085316 -0.253333 -0.283153
0.001582 0.191331 0.330620
-0.228456 0.354305 0.361548
-0.336261 -0.315886 -0.374799
-0.437943 -0.039096 -0.332581
0.063116 0.139699 -0.200639
-0.212648 0.537746 0.191614
0.034728 0.387064 -0.151370
0.690704 -0.115699 0.204235
0.543042 0.258445 -0.085834
-0.728727 0.448067 -0.269195
-0.542865 -0.505937 -0.319423
-0.312029 -0.562834 -0.424744
0.617679 -0.444765 0.164042
-0.271638 0.071904 0.078060
-0.322725 -0.522714 -0.062413
-0.612799 0.360648 0.291962
0.448672 -0.540511 -0.279332
-0.248625 -0.355113 -0.367258
0.239767 0.189730 -0.156988
0.689244 0.048810 0.076948
-0.184170 0.290503 -0.213077
0.007471 -0.589474 0.197137
0.451915 0.566713 0.320735
0.671059 -0.109532 0.212182
-0.123764 -0.680387 -0.060415
-0.207910 -0.617149 -0.417484
0.722448 -0.235053 0.160214
0.307912 0.737168 -0.023762
0.514435 0.637512 -0.007581
0.210768 -0.026496 -0.209995
0.361387 -0.401455 -0.264808
-0.123733 -0.168331 0.052435
-0.265654 -0.614632 -0.427594
0.753719 -0.130601 -0.063700
0.069130 0.502776 0.235949
0.013924 -0.198055 0.071308
-0.113645 0.403511 0.195099
-0.397610 0.084876 0.135400
-0.477256 0.585890 -0.202111
-0.351937 -0.018687 -0.312199
-0.692953 -0.004660 -0.060031
0.466493 -0.179777 -0.196544
0.593479 0.361856 0.247985
0.793738 -0.526303 0.080226
0.221470 -0.512599 -0.315143
0.044451 0.645012 -0.092729
-0.336968 -0.192219 0.091225
0.323869 -0.191116 0.130081
-0.527728 -0.555207 -0.346629
-0.051375 -0.125675 0.288478
0.092776 -0.266974 0.070683
0.245601 0.635864 -0.057595
-0.523768 -0.691891 -0.136826
-0.686551 0.508674 -0.257782
0.800323 -0.495739 0.026107
-0.408726 -0.371129 -0.400357
0.375788 0.761073 -0.005958
-0.013006 -0.535408 0.205270
-0.481540 0.400996 0.251343
0.442706 -0.216209 -0.208966
-0.747954 0.405244 -0.148921
-0.531853 -0.751001 -0.169080
-0.691467 0.150098 -0.192481
0.144649 0.504312 0.250235
-0.524945 -0.632506 -0.296142
-0.426911 -0.016801 -0.325630
0.508789 -0.121214 0.179638
-0.508933 -0.549670 -0.102744
0.139017 0.000673 -0.217259
-0.326688 0.317308 0.263525
-0.416053 0.466316 0.138306
-0.127777 -0.570249 -0.036884
-0.590076 -0.506737 -0.108956
0.168034 -0.069020 -0.227259
0.661064 -0.215171 -0.168409
-0.643592 0.054491 -0.327502
-0.613943 -0.059501 -0.366573
0.700667 0.020474 0.049221
0.379372 0.283607 -0.110517
-0.798645 0.522254 -0.018792
0.649067 0.278890 0.068404
0.168699 0.087683 -0.192603
0.297103 0.571437 -0.062281
-0.186398 0.106402 -0.254060
-0.580376 -0.384102 -0.251792
-0.645318 0.229690 0.043817
-0.202287 -0.640132 -0.421511
0.338859 -0.353714 -0.258448
0.584247 0.402475 0.255982
0.037426 0.688499 -0.084443
0.004969 -0.506529 0.214954
-0.772209 0.398719 0.057632
-0.276491 -0.404826 -0.383360
-0.512155 -0.257152 -0.025889
-0.260116 0.282390 0.339852
0.775068 -0.395662 0.056966
-0.364336 0.010741 0.047810
0.189838 -0.419460 -0.300459
0.604786 0.389387 -0.045574
-0.569221 -0.584000 -0.138812
0.519361 -0.602341 0.075563
0.439040 0.033511 0.200854
-0.428390 0.574661 0.159904
-0.174930 0.618400 0.216354
0.645007 -0.491630 -0.232299
0.200096 0.593166 -0.075408
-0.594679 0.098262 -0.331259
0.258583 -0.164902 -0.231665
-0.404391 0.035964 -0.309843
0.218741 0.145205 0.295461
-0.012628 -0.502100 0.212680
0.594324 -0.050844 -0.144522
-0.571704 -0.525324 -0.175493
-0.341179 0.417380 0.246545
0.423548 0.784483 0.008022
-0.072757 0.032105 0.319299
0.151940 0.066612 -0.200341
-0.313144 0.362092 0.166915
-0.159106 0.517956 0.197142
0.029195 -0.036633 -0.245763
-0.214195 -0.668425 -0.429945
-0.578126 -0.050205 0.099011
0.460048 0.521683 0.312314
-0.502552 0.276692 0.293822
-0.371146 -0.349462 -0.033176
-0.535490 -0.421072 -0.421209
-0.281113 -0.454852 -0.395238
0.662223 0.031142 0.211401
-0.113435 0.389150 0.205848
-0.128635 -0.013345 0.153166
0.708333 0.095574 -0.045918
-0.204392 -0.562391 -0.404767
-0.061205 -0.594398 0.183368
0.367658 -0.295809 0.115096
0.604751 0.140340 -0.100464
-0.398356 -0.538844 -0.435401
0.472857 -0.552900 -0.277596
-0.610377 0.155460 0.247191
-0.408610 -0.109790 -0.342743
-0.045653 -0.344368 0.028061
-0.111161 -0.638182 -0.048786
-0.463428 -0.694543 -0.126266
-0.139291 0.356809 0.347056
0.416288 -0.111015 0.164801
0.386041 0.355574 0.262039
0.282229 0.241629 0.321717
-0.249674 0.060477 -0.275867
-0.053260 -0.449331 0.216804
-0.018973 0.187054 0.150100
0.576185 -0.460203 -0.238084
-0.159087 0.434771 0.371636
0.039766 0.479129 -0.130151
0.216941 -0.357827 -0.281871
0.687098 0.001187 0.125211
-0.710150 0.052177 -0.029820
0.167716 0.320509 -0.141475
0.504280 -0.241412 -0.203148
-0.549453 -0.474936 -0.093759
-0.335184 0.005985 -0.303668
-0.138883 0.319986 0.370528
0.235866 0.173226 0.338571
-0.131202 -0.485954 -0.018940
-0.506354 -0.680051 -0.340101
-0.591649 -0.312053 -0.065657
0.114655 0.279748 0.408486
0.152393 -0.391935 -0.301309
0.479276 0.019830 -0.150195
-0.713987 0.194079 -0.128163
0.435255 -0.043786 0.183120
0.774141 -0.324960 0.003590
0.333061 0.314601 0.266996
-0.272472 -0.109454 -0.317526
-0.682501 0.202046 -0.274571
-0.380428 0.402042 -0.224743
0.154372 -0.177042 0.101878
-0.618094 -0.150760 -0.273915
-0.615666 0.064029 0.226065
-0.708977 0.171370 -0.131960
-0.058801 -0.594849 -0.029566
0.648450 -0.182013 0.192033
0.285988 0.633152 0.304732
-0.136860 0.221532 -0.219539
0.054307 0.238240 0.388193
-0.662254 0.464400 0.092413
-0.405596 0.439704 0.134373
0.251169 0.540375 0.277855
0.393545 -0.107565 -0.194103
0.756859 -0.277823 0.042062
0.717325 -0.048846 0.031561
0.153378 -0.592026 -0.345222
-0.344840 0.392877 0.282743
-0.459234 0.093346 -0.307327
0.115323 -0.015310 0.191021
-0.632710 0.019270 -0.347221
-0.226004 -0.568149 -0.054563
0.780697 -0.232684 -0.100582
0.090046 0.051024 -0.215207
-0.761037 0.424337 -0.106304
0.122274 0.019800 0.352608
-0.434445 0.459987 -0.221950
-0.411442 0.114241 0.172995
0.624689 0.333947 0.131975
0.684919 0.067701 0.080804
0.661845 0.198935 0.076636
0.381565 -0.474681 0.291525
-0.043017 -0.108066 0.080623
-0.330482 -0.158557 0.035026
-0.315130 0.576724 0.181277
-0.514863 0.277820 0.291797
0.168369 0.445427 -0.113826
0.014811 -0.294075 0.050312
0.099250 -0.033866 0.289182
-0.611575 0.017811 0.192360
0.690106 -0.211657 -0.162271
-0.208435 -0.573918 -0.408054
-0.360263 -0.019696 -0.313959
-0.699630 0.491331 0.091445
-0.592512 -0.057851 0.203482
0.588724 0.118648 0.247260
-0.395721 -0.064897 0.238275
-0.509949 -0.712888 -0.297422
-0.428893 0.103658 0.259155
-0.553839 0.024332 -0.340008
-0.540040 -0.166156 -0.379438
-0.020649 -0.331561 -0.319963
0.306112 -0.216767 -0.234317
0.131332 0.382192 0.273243
-0.364443 -0.669925 -0.458025
0.072581 -0.082147 0.138959
-0.322303 0.491043 -0.194395
0.298223 -0.387380 -0.273372
-0.512119 0.374215 -0.255198
-0.562609 -0.349870 -0.068627
0.017438 0.598618 0.247523
-0.318620 0.341292 0.342028
0.592674 -0.486991 0.309506
-0.745149 0.275544 -0.055919
-0.611175 -0.410171 -0.093716
0.601031 -0.380696 0.185926
0.652031 -0.230419 -0.173438
0.414006 -0.275096 0.128221
-0.521416 -0.589645 -0.346676
-0.119136 0.415621 0.209656
-0.724926 0.126826 -0.024860
-0.072625 -0.490399 0.107389
0.690521 -0.218587 -0.163722
0.700750 0.075871 0.003807
0.004229 0.188141 0.202623
-0.739526 0.232578 -0.045968
-0.493860 0.559729 -0.210943
-0.143081 -0.227629 0.035794
-0.675314 -0.118138 -0.046142
0.738133 -0.207613 0.068193
0.374476 0.276256 -0.113041
-0.078290 0.263021 -0.199579
0.237316 -0.334297 -0.272923
-0.490669 -0.711052 -0.384596
-0.798532 0.426903 0.058243
-0.153949 0.447554 0.338405
0.608904 -0.235883 0.172858
-0.729040 0.148079 -0.023859
-0.087350 -0.434680 0.127521
-0.155493 -0.047808 0.255335
0.706001 -0.093770 0.118418
-0.569990 -0.095611 0.199321
0.496557 0.196912 -0.107979
-0.480988 -0.663539 -0.122677
-0.307790 0.297361 -0.234397
-0.154467 0.123313 -0.244436
-0.013220 0.314413 -0.176235
-0.174555 0.421508 0.386313
0.458458 0.585329 0.326046
-0.582931 0.252552 -0.295087
0.115837 -0.216737 0.086013
-0.205213 -0.668713 -0.072885
-0.167369 0.260760 0.352215
-0.097236 -0.373952 -0.343450
-0.414944 0.252755 0.091448
-0.288573 -0.005499 -0.297590
-0.247611 0.214725 -0.241493
0.722633 -0.024378 -0.011925
0.704079 -0.400005 -0.201197
0.677804 -0.564835 0.113091
-0.599114 -0.388016 -0.165332
-0.051076 0.582436 0.231303
0.684030 0.221188 -0.040057
-0.045667 -0.438616 -0.348176
-0.690854 0.423546 0.078128
-0.281377 0.518188 0.174611
-0.692827 0.156932 -0.191992
-0.792886 0.503911 -0.029469
-0.116055 0.685711 -0.113404
0.558224 -0.487524 0.108043
0.421272 0.488056 0.297742
-0.693827 0.309207 -0.303083
0.407700 0.040290 0.196559
-0.591859 -0.197476 -0.040446
-0.112639 0.298996 0.275622
0.683545 -0.461878 0.136840
0.530996 0.404988 -0.055765
-0.365994 -0.166742 0.199503
0.028983 0.231924 0.323612
0.209716 0.128566 0.239252
0.232744 -0.003284 0.154644
-0.280680 -0.387139 -0.380236
-0.650674 0.004934 -0.255731
-0.229993 0.242409 -0.232139
0.185315 0.470002 0.399788
0.672931 0.184881 0.038793
-0.087823 0.346586 0.172541
-0.603265 -0.202939 -0.297384
0.318076 0.183417 -0.143917
0.346787 -0.063470 0.162443
0.427806 -0.256787 0.134804
-0.536267 -0.379030 -0.070188
0.747620 -0.380427 0.166560
0.420578 -0.116853 -0.191158
0.476567 0.085388 0.219216
0.646647 0.291372 0.069010
-0.372777 0.320129 0.114083
0.517204 0.228215 0.258197
-0.665648 0.374783 0.142389
0.565419 0.094654 0.237669
0.275710 -0.423766 0.283195
0.331583 0.454903 0.305233
-0.189380 -0.488906 -0.030336
0.756472 -0.172846 -0.041583
-0.134008 0.272381 -0.207807
0.127692 0.010874 0.328585
-0.371585 0.186371 -0.270638
-0.691266 -0.037002 -0.041227
0.015993 0.306884 -0.172499
-0.632820 -0.167458 -0.194891
0.545890 -0.140198 -0.173158
0.758036 -0.313468 0.065820
0.025875 -0.642226 -0.024368
0.101644 -0.546032 0.224103
0.758440 -0.287590 -0.166384
0.761476 -0.304743 0.043438
-0.522491 -0.728919 -0.144750
-0.127157 -0.446343 -0.364929
0.596794 -0.368988 -0.214177
-0.562825 -0.160256 0.120504
-0.159767 0.407440 0.385944
0.087285 0.612805 -0.091915
0.697065 -0.532478 0.123779
0.320833 -0.184868 -0.224568
0.330371 -0.416557 -0.273865
0.471512 -0.557132 0.076688
-0.467096 -0.425297 -0.423074
-0.628053 -0.102572 -0.268842
0.087437 -0.189568 -0.268709
0.510502 0.330174 0.279428
-0.754200 0.441112 -0.150329
-0.406079 -0.349858 -0.039715
-0.723763 0.356539 -0.216823
-0.520440 0.007919 -0.337457
0.037153 -0.420436 -0.328874
0.712111 0.029648 -0.009099
0.306319 0.701204 -0.031982
0.330512 -0.119491 -0.208373
0.727175 -0.024783 -0.114243
0.654299 -0.121127 -0.148934
-0.137821 0.463702 0.253596
0.229130 0.160563 0.292245
0.350636 0.483325 0.283653
-0.752015 0.247711 0.028083
0.126091 -0.620893 -0.356623
-0.133271 0.402142 0.283436
0.556692 0.331780 0.288313
0.716834 -0.130995 -0.139559
-0.529509 -0.645133 -0.265590
-0.417375 0.270427 -0.260572
-0.441730 0.260168 -0.267331
0.495392 0.271330 -0.091795
-0.626400 0.548782 -0.237834
-0.115278 0.367672 -0.183348
-0.155543 -0.399218 -0.359787
-0.019641 -0.352176 -0.324320
-0.038118 0.611164 -0.115438
-0.120097 0.632281 0.229540
-0.540358 -0.516437 -0.322026
-0.234542 0.471712 -0.182446
-0.082105 0.663239 -0.112086
-0.675262 0.326552 0.224335
0.641178 0.335318 0.057579
-0.646774 0.521554 -0.247597
-0.370543 -0.261426 -0.369129
0.486808 -0.032074 -0.160243
-0.390380 -0.342139 -0.390580
-0.471095 0.202787 -0.285399
0.129292 0.009597 -0.217089
-0.678003 0.331458 0.232526
-0.264872 -0.135036 0.033705
-0.183903 0.280892 -0.215146
0.568939 -0.278657 0.239917
-0.498369 -0.718203 -0.344561
-0.674656 0.039139 -0.176965
-0.752623 0.478951 -0.188107
0.089536 0.008503 -0.224672
-0.408243 -0.407434 -0.408268
0.277677 0.016496 -0.188163
0.232262 -0.485011 -0.307070
0.209940 -0.496275 -0.313675
-0.154238 -0.543536 -0.391349
-0.052055 0.018381 -0.248646
0.487914 0.529948 0.319282
0.034751 -0.135062 0.204608
0.507102 -0.227434 0.155918
0.541531 0.666031 0.231499
-0.525679 -0.142827 0.197099
-0.465767 -0.636327 -0.113869
-0.744399 0.402209 -0.162255
0.217220 -0.651604 0.008904
-0.213785 0.201846 0.117381
-0.379407 0.130054 0.070971
-0.660170 0.456603 -0.264385
-0.464317 0.100755 -0.306633
-0.417660 0.087562 0.222326
0.384286 -0.055435 0.171140
-0.105110 -0.319176 -0.332833
0.594686 0.424283 0.191853
0.635118 -0.450201 0.130469
-0.560608 -0.136435 0.091281
-0.595008 -0.056922 0.179503
0.184271 0.536013 0.264539
-0.292831 -0.615277 -0.077291
0.743914 -0.294969 -0.170693
0.796895 -0.501264 0.045832
-0.029221 0.317833 -0.178437
-0.397514 0.118651 0.107508
0.365606 0.689367 0.331824
-0.312457 -0.008561 -0.302676
-0.482230 0.084433 0.255206
0.092206 0.309801 0.410963
0.487184 0.666717 0.349287
0.046587 -0.000776 -0.234649
0.144683 0.016052 0.142641
-0.365615 -0.175847 0.205224
0.171231 0.452725 -0.111689
-0.046703 -0.558960 -0.374888
-0.032821 0.359927 0.185639
0.048153 0.472081 -0.130155
-0.611001 0.095122 0.020500
-0.535053 -0.244626 0.065688
0.507966 -0.339564 0.344646
0.179393 0.457324 0.331411
-0.031506 0.258836 0.163604
0.133211 0.503949 0.248042
0.008557 -0.407025 0.237544
-0.504794 -0.634291 -0.120628
0.390775 0.580393 -0.043007
0.543300 0.688197 0.205615
-0.315484 0.294679 0.232131
0.140295 0.337009 0.425841
0.423687 0.341927 0.265985
-0.759506 0.476951 0.077218
0.124852 0.466955 0.238346
0.636428 0.443327 -0.009143
0.588773 -0.183474 -0.174775
0.416979 0.715801 -0.008327
0.455643 0.468325 0.299741
-0.209788 -0.557748 -0.404741
-0.476068 -0.082814 0.219487
-0.710773 0.070423 -0.041890
-0.060057 -0.461182 0.027775
-0.137465 0.601200 -0.135982
-0.645853 0.100356 0.015217
0.788668 -0.306296 -0.076146
0.228945 0.089448 0.174378
0.598764 -0.383297 0.198115
-0.665930 0.167370 -0.320020
-0.720623 0.332364 -0.211124
-0.715330 0.221021 -0.144101
-0.125396 0.259671 -0.209017
0.008803 0.201264 0.315094
0.336183 -0.601967 0.041814
0.007169 -0.348284 -0.318511
-0.129332 0.288781 0.358116
0.141965 0.025720 0.212196
-0.670520 0.261998 -0.309182
0.098323 -0.548622 0.222919
-0.464753 -0.633822 -0.468595
-0.360870 -0.224944 0.209441
-0.121359 0.359142 0.265466
0.480329 0.569072 -0.028962
-0.533525 -0.722700 -0.184667
0.086005 0.185854 0.382503
-0.291796 -0.708312 -0.097602
0.684451 -0.076967 -0.133633
0.477145 -0.455067 -0.255244
-0.203757 -0.464621 -0.027639
-0.422971 0.295723 0.099434
-0.565269 -0.428987 -0.282430
-0.231093 0.315591 -0.216215
0.182280 -0.430909 0.264365
-0.577115 -0.409938 -0.084544
-0.662092 0.221718 0.251055
0.433387 -0.549636 -0.284166
-0.214344 -0.382292 -0.366916
0.298186 -0.080960 0.149613
0.434567 -0.056629 -0.175302
-0.022416 0.526306 -0.131238
-0.147371 0.677082 -0.121089
0.348090 0.261051 -0.121265
0.208351 0.465086 0.466634
-0.032154 -0.235611 -0.300943
0.769851 -0.285398 -0.163794
0.242810 0.608123 -0.064224
0.338446 -0.460296 -0.282012
-0.579854 -0.378076 -0.259009
0.058554 0.376906 -0.149208
0.615701 -0.371159 0.144302
-0.623979 0.128321 0.025419
-0.051057 -0.581740 -0.380712
0.347489 0.071856 -0.163070
0.007848 0.207884 0.159644
0.186752 0.255506 -0.152284
0.158788 0.386093 -0.128671
-0.077525 0.348943 -0.180502
0.368927 0.623475 0.317917
0.528495 -0.057497 -0.158146
-0.197189 -0.020054 0.071545
0.647727 0.083902 0.232919
0.191655 0.216310 -0.160017
-0.571849 -0.175020 0.172614
-0.155262 0.395829 -0.184527
-0.528063 0.415639 -0.249014
0.451496 -0.182645 0.155519
-0.424155 0.174013 0.180891
0.179612 0.453177 0.251307
-0.636068 0.303940 0.061889
-0.562397 -0.082271 0.055185
-0.101488 -0.625063 -0.399573
-0.201606 0.035280 0.082923
-0.050302 -0.295772 -0.317553
0.325185 0.042864 0.181887
0.158905 0.524722 0.257366
0.134839 -0.192784 -0.260664
-0.195681 0.054875 0.088336
-0.031870 -0.496018 -0.358278
0.341142 0.130992 -0.151210
-0.727480 0.142811 -0.026507
0.236438 -0.507857 0.257411
0.223741 0.249070 0.421872
0.260698 -0.298026 0.094854
0.389487 -0.183452 -0.211577
-0.666443 -0.067291 -0.126918
-0.611900 -0.207460 -0.046347
-0.292622 0.161108 0.093843
0.279543 0.615000 0.299541
0.166894 -0.321885 0.072271
-0.560502 -0.448039 -0.288123
-0.306739 -0.260739 -0.001729
0.587090 0.516918 0.150283
0.757673 -0.385306 0.125851
-0.682186 0.107432 -0.199034
-0.758130 0.481700 -0.165869
-0.701914 0.086359 -0.094220
-0.160724 0.114009 -0.247642
0.052391 0.318152 -0.163294
0.236263 0.686275 0.307255
-0.110498 0.249564 -0.208493
-0.448455 0.373481 0.126679
-0.445107 0.387560 -0.239880
0.127833 -0.618767 -0.355833
-0.494279 -0.670824 -0.401268
-0.332327 0.454634 0.176910
0.060193 0.663979 0.269823
-0.023026 -0.669923 -0.039504
-0.283601 0.024854 -0.289983
-0.116738 -0.327328 -0.336777
-0.024892 0.240212 0.160722
-0.615556 0.209745 -0.310546
0.535726 0.206294 -0.098678
-0.466298 0.116716 -0.303481
0.686954 0.058925 0.078898
0.376516 -0.529924 -0.290325
0.309145 0.228579 -0.135614
0.820944 -0.417000 -0.183359
0.760728 -0.108491 -0.112827
0.440940 0.449832 0.292951
-0.587740 -0.315622 -0.065721
0.627401 -0.333751 -0.200758
0.415572 -0.339582 -0.241166
-0.625212 -0.146008 -0.246143
0.293740 0.387396 0.465284
0.297978 -0.462380 0.278798
0.463018 0.635868 0.338025
0.026399 0.384999 -0.153363
0.795838 -0.386772 -0.181334
0.588399 0.491325 0.165278
0.696570 -0.550169 0.119788
-0.728145 0.227671 0.028075
0.340190 0.042839 -0.170812
0.748215 -0.557377 0.127738
-0.130610 -0.186811 0.047092
0.134151 -0.011561 -0.220854
0.585906 0.433086 -0.039431
-0.556233 -0.440612 -0.087447
0.287662 0.322206 0.449795
0.653217 -0.533510 0.115453
0.155118 0.580421 -0.086524
0.359413 -0.384410 -0.261417
0.225527 -0.089229 0.134371
-0.087835 -0.502169 -0.014504
-0.678889 0.050071 -0.167040
-0.599880 -0.015914 0.211363
-0.589334 -0.069441 0.164468
-0.466204 0.157686 0.274309
-0.329401 -0.005057 -0.305034
0.751321 -0.087701 -0.087926
0.761871 -0.410056 0.127318
-0.647067 0.269443 0.145471
-0.047467 -0.584738 0.188034
-0.200291 0.507809 0.187299
0.276675 0.439451 -0.095140
-0.605255 -0.334009 -0.181956
0.128363 0.663278 -0.073206
0.307221 -0.264934 -0.244727
-0.057326 -0.461823 0.016157
-0.532858 -0.432637 -0.423505
-0.280640 -0.527603 -0.055718
0.481516 0.098613 -0.132420
0.120108 -0.422169 0.254809
0.576928 -0.492614 0.110376
0.465173 -0.050374 0.187194
0.583444 0.603453 0.096118
0.402134 0.365512 0.267202
0.341173 -0.019388 -0.184344
0.046486 0.285888 0.183970
0.236294 0.140424 -0.168496
-0.099227 0.183451 0.134484
0.033322 0.470670 0.222260
0.433514 0.704645 0.347733
0.234771 -0.420096 0.276443
-0.117816 -0.662991 -0.410948
0.620971 0.431391 0.069256
0.564043 0.176540 0.255460
0.635572 0.186817 0.203251
0.095259 -0.607555 -0.359378
0.443019 -0.412676 0.316539
-0.583397 -0.524515 -0.124185
0.348973 0.342437 -0.103167
-0.194505 0.492648 -0.170438
0.224355 -0.015639 -0.205093
-0.378528 -0.770218 -0.127263
-0.390692 0.538162 0.158823
-0.431445 -0.395961 -0.054560
0.521329 0.557853 -0.023862
0.316407 -0.115631 -0.210128
-0.348030 0.155461 0.082365
0.219944 0.452524 -0.102737
-0.356520 0.150786 0.079767
-0.547654 -0.140587 0.037086
-0.351029 -0.251817 0.202180
0.374165 0.595290 0.312673
0.378628 0.272240 -0.113159
0.668495 0.037765 0.178141
-0.544669 -0.033106 0.217772
-0.479982 -0.443748 -0.074055
0.462064 -0.540689 0.078567
0.028709 0.490273 -0.129737
-0.650512 -0.232891 -0.063053
0.127711 0.237527 0.401593
-0.722918 0.308984 -0.181909
0.796906 -0.543579 0.080193
0.598199 -0.156729 -0.167140
-0.714189 0.319974 -0.229640
0.139901 -0.033571 0.130822
0.404046 0.673405 0.335406
-0.540922 0.290379 0.289751
0.070758 -0.624375 -0.367610
0.246640 -0.534023 -0.315215
0.551369 0.810746 0.070099
0.594306 0.312839 0.284168
-0.705023 0.233368 -0.199949
0.623628 -0.432085 -0.223125
-0.428167 -0.557183 -0.444948
-0.558594 -0.514456 -0.242592
-0.705860 0.022279 -0.024575
-0.554655 -0.464292 -0.300890
-0.320429 0.316030 -0.232617
-0.701441 0.215254 -0.201138
-0.046450 -0.587766 -0.025725
0.562369 0.786700 0.040765
-0.609087 0.084633 0.126961
-0.375512 0.175793 0.081770
-0.198172 -0.640509 -0.420834
-0.417979 0.348444 0.111975
-0.498136 0.550420 0.141681
-0.339862 0.331578 0.310468
-0.570660 0.000933 0.024248
0.354014 0.355104 0.431042
0.654915 -0.262257 0.175543
0.209032 -0.389524 -0.290317
-0.003484 -0.217440 -0.291644
0.295491 0.187850 -0.147111
0.468243 -0.336858 0.337906
-0.378300 -0.501053 -0.423369
0.037851 0.241968 0.265986
-0.757199 0.464651 0.074933
0.501943 0.209240 0.251197
-0.336010 0.372038 0.132313
-0.767442 0.546730 -0.177366
-0.337805 -0.114354 0.031625
0.028163 -0.228933 0.067133
0.542451 0.219445 -0.094538
0.745815 -0.290867 0.101755
-0.089154 0.028100 -0.253355
0.183788 -0.013621 -0.212140
0.508418 0.758413 0.303539
-0.361956 -0.687361 -0.461408
-0.661102 -0.104908 -0.120061
-0.322107 -0.409752 -0.392870
0.020526 0.004856 0.330523
-0.783187 0.381524 0.026950
-0.497779 -0.308577 -0.403019
-0.214912 0.226934 -0.232764
-0.737731 0.236617 -0.057230
-0.480014 -0.518659 -0.446034
0.268755 -0.042947 0.152554
-0.469249 0.414666 0.185602
-0.647905 0.069154 -0.320256
0.558551 -0.306057 0.314023
0.571340 0.308464 0.285880
0.465791 -0.391199 -0.243266
-0.406126 -0.154261 -0.352084
-0.797263 0.460141 0.025575
-0.021149 0.446881 0.206958
0.135297 0.643896 0.279268
0.738050 -0.075258 -0.039067
-0.393816 0.136115 0.076874
-0.422405 -0.646221 -0.108041
-0.284597 0.164281 -0.259441
-0.418985 0.363359 -0.240389
0.573010 0.510996 0.217672
-0.566818 0.537370 -0.229345
0.545529 -0.522797 -0.257540
0.432902 0.417269 0.284290
0.179874 0.545133 0.265736
0.702707 -0.374597 0.159613
-0.108972 0.414651 -0.171830
-0.063519 -0.593935 0.151114
-0.282090 -0.121658 -0.321991
-0.284524 0.246660 -0.241273
0.493739 0.449678 -0.052797
-0.045806 0.681910 -0.101267
-0.436012 0.327174 0.109038
-0.634943 -0.100585 -0.239833
0.776936 -0.459173 0.100309
0.597239 0.552294 0.076410
-0.468964 0.404540 -0.240545
0.188394 0.446192 0.458785
0.071369 -0.590466 0.208719
0.027704 -0.415571 0.239197
0.542330 0.426864 -0.048850
-0.077119 -0.453922 0.097699
-0.176260 -0.375492 -0.358384
-0.518865 -0.043920 -0.348590
-0.473622 0.323896 0.278850
0.133662 -0.376192 -0.301299
-0.550233 -0.258955 0.144805
0.478511 0.711557 0.357567
-0.192440 -0.733284 -0.084755
-0.051302 0.460847 -0.150999
-0.454439 0.172432 -0.289013
-0.358307 -0.175810 0.172718
-0.005335 -0.005582 0.323446
0.585889 0.548389 0.130027
0.356283 -0.296242 -0.242565
-0.455152 0.235679 0.268502
-0.126505 -0.023091 0.083930
0.485920 -0.385335 0.330488
0.139499 -0.270642 -0.276961
0.141214 0.538536 -0.098322
0.412962 -0.514218 0.288611
0.188225 -0.552824 0.025318
-0.529145 -0.307513 -0.053112
-0.269786 -0.751531 -0.103062
-0.244598 -0.739721 -0.095807
-0.547067 0.319673 -0.273672
-0.233893 0.393741 -0.199510
0.085099 -0.080794 0.110295
0.423549 0.681751 -0.014617
-0.404925 0.171088 0.097806
0.277534 0.229271 0.226195
0.203022 -0.395092 -0.292654
-0.501392 -0.497433 -0.089840
-0.158356 -0.152247 0.049585
0.630519 0.169289 0.239962
0.329297 -0.022592 -0.187243
0.798680 -0.368808 -0.069811
-0.231961 -0.178570 0.030190
-0.098915 0.066911 0.108860
0.311099 0.634306 0.309624
0.168699 0.537163 0.261916
-0.230219 -0.136399 0.039805
0.447598 -0.190812 0.152999
0.605896 0.299483 0.243519
0.539778 0.622287 0.274864
-0.134997 -0.387686 -0.353451
-0.556394 -0.115798 0.055772
-0.341297 0.397190 0.263490
-0.055826 -0.311949 -0.322138
0.540617 0.366560 -0.062456
-0.084046 -0.148562 0.064121
-0.640240 -0.113274 -0.205977
-0.197801 -0.422718 -0.017305
-0.051866 0.101518 0.153886
0.601668 -0.334365 0.149819
-0.254833 -0.577891 -0.417499
-0.488698 -0.112880 -0.358215
-0.391177 -0.032394 0.202176
-0.051322 -0.531804 0.046383
-0.149195 0.137321 -0.240375
0.424496 0.451916 -0.065092
0.720587 -0.210092 0.148186
0.395509 -0.595514 0.054193
0.379546 0.249353 0.237431
-0.116369 -0.553755 -0.386607
0.093114 0.272989 0.403019
0.228478 -0.427214 -0.295032
0.105282 0.183790 -0.183135
0.422527 0.208069 0.236272
0.172372 0.078123 0.336129
0.182673 0.589637 -0.079404
0.114701 0.548243 -0.101080
-0.762271 0.401764 -0.082466
-0.353774 -0.041558 0.043399
0.452177 0.392200 0.282325
0.132284 0.510058 -0.106247
-0.801681 0.448777 0.063220
-0.638996 -0.052082 -0.261265
-0.229752 0.029580 -0.278996
-0.585050 0.033513 0.224995
0.596724 0.528790 0.097812
0.590486 0.038000 0.229813
-0.119942 -0.161288 -0.300778
-0.412056 0.018492 0.253585
0.017334 -0.471892 0.224871
-0.121438 0.579440 -0.137817
0.255710 0.573339 -0.069507
-0.558487 -0.462016 -0.285712
0.593951 0.648872 0.009608
-0.038883 -0.084568 -0.268900
-0.333805 -0.236652 -0.001419
-0.068984 -0.439091 0.049483
0.379280 0.735431 -0.010964
0.827233 -0.473891 -0.111254
-0.460224 0.622763 -0.190840
0.737463 0.002341 -0.099560
-0.574354 -0.008222 -0.350971
0.654577 0.349366 -0.013395
-0.675084 0.348805 0.205447
0.369734 -0.212610 0.133815
-0.433536 0.180216 -0.283437
-0.339330 -0.078528 0.032407
0.323251 -0.173636 0.133819
0.009249 -0.294321 0.049230
0.056726 0.586187 -0.103425
-0.416441 0.055591 0.242907
0.057031 -0.478664 -0.338034
0.585105 0.071879 -0.119180
0.475267 0.149594 0.233126
0.088208 -0.575339 0.215163
0.807297 -0.337892 -0.133246
-0.419572 0.421440 -0.227698
-0.457144 0.433006 -0.232088
0.310726 0.289564 0.416804
0.555317 -0.466973 -0.243430
-0.185543 -0.142163 0.046786
0.512330 -0.418811 -0.240756
0.464055 0.671636 -0.009365
-0.358749 -0.173913 0.173137
-0.048380 0.333043 -0.178623
0.159074 0.052062 0.225641
-0.324427 0.387499 0.196395
-0.683728 -0.064149 -0.052654
-0.425928 -0.621355 -0.103212
-0.178566 0.203557 -0.231203
-0.146850 -0.245871 0.031077
0.826453 -0.468607 -0.193714
-0.513584 -0.008497 0.228936
0.487679 0.152206 -0.119471
0.265524 0.357161 0.453410
0.470235 -0.334668 0.338757
0.556921 0.666748 0.006709
-0.132930 -0.506983 -0.023894
0.015512 0.669818 -0.092607
-0.125920 -0.546490 -0.031305
-0.666480 0.006378 -0.186659
0.710762 -0.038620 0.052411
-0.507043 -0.596375 -0.405079
-0.175952 -0.566597 -0.044977
-0.598872 -0.007192 0.156238
-0.342609 0.298217 0.114826
-0.200282 -0.392507 -0.011106
-0.371637 0.484866 -0.204868
0.200776 -0.167782 0.112489
0.802836 -0.531391 0.043930
-0.410085 0.557790 0.159567
0.440102 0.202297 -0.117219
-0.290652 0.271510 0.140615
-0.682641 0.117882 -0.205508
-0.761969 0.344505 -0.037244
0.489564 0.336446 -0.078521
0.500816 0.588716 0.334615
-0.329082 -0.158644 0.028875
-0.621285 0.135003 0.140212
-0.732111 0.218720 -0.067653
0.807973 -0.407577 -0.079586
-0.431553 -0.501063 -0.433206
0.175633 0.080893 0.298392
-0.078424 -0.614569 -0.037536
0.387097 -0.240996 0.130766
-0.557624 -0.108147 0.055017
0.177147 0.453666 0.326038
-0.008773 0.111641 -0.220100
-0.465139 0.415203 0.166900
0.708779 0.121759 -0.085346
-0.589521 -0.372438 -0.220635
0.152446 -0.359264 -0.294100
0.505159 -0.213547 0.158620
-0.129878 -0.546024 -0.031934
-0.405602 -0.212310 0.203964
-0.151216 0.258515 -0.214040
-0.131052 0.219537 0.136559
-0.157415 -0.356217 -0.350656
0.185946 -0.145294 0.114706
0.607619 -0.251156 -0.186210
-0.699540 0.293936 -0.273570
-0.308932 -0.242962 0.001784
0.580695 -0.322781 0.229211
0.344553 0.691626 0.328434
-0.752362 0.233899 0.010003
-0.046702 0.114546 0.248839
-0.139934 -0.051524 0.288463
0.239194 0.405337 0.459164
0.755954 -0.244432 0.018933
