-0.726585 -0.281025 0.007286
-0.025575 -0.095727 0.123287
0.522183 0.167238 0.168490
0.003072 0.510764 0.234367
-0.381266 -0.060030 0.159952
0.697236 0.353950 0.165267
0.382342 0.470833 0.168000
-0.267725 -0.621627 0.173802
-0.170980 -0.588584 -0.167114
0.752635 0.302948 -0.092313
-0.592001 -0.026708 0.228592
0.745007 0.323128 -0.038883
0.527654 0.172704 0.168453
-0.542919 0.021942 -0.333606
0.068148 -0.648594 0.233910
-0.586919 0.489647 -0.296069
-0.200222 0.640948 -0.383540
0.284338 0.072540 -0.205697
0.578540 0.514972 -0.233252
0.129044 0.428446 -0.292593
-0.342019 0.233925 0.120518
0.241659 0.049195 0.142478
-0.262403 -0.241805 -0.241891
-0.342302 0.333187 0.180820
0.738497 0.426186 -0.191557
0.054408 0.333931 -0.288653
-0.557046 0.660562 -0.357355
0.001982 -0.260233 0.156148
-0.443334 -0.089343 -0.298008
-0.766557 -0.581103 0.047037
0.552008 -0.204932 0.237464
-0.632493 -0.299470 -0.293085
-0.043199 0.280998 -0.295662
-0.535456 -0.087008 -0.313623
0.562024 -0.287425 0.253315
-0.455003 -0.084674 0.050468
0.134728 0.591475 0.031496
0.120850 -0.327263 0.398038
0.598160 -0.607117 0.209068
0.084484 -0.213136 0.161668
0.045137 -0.400888 -0.163725
-0.461271 0.279317 -0.364415
0.745642 0.502152 0.063643
0.620641 -0.675625 0.046247
-0.358005 -0.326238 0.108058
0.370802 -0.045838 0.180160
-0.533595 0.232905 0.021886
-0.442279 0.690120 -0.080769
-0.323425 -0.198504 0.091786
0.366599 -0.738616 -0.052517
-0.438954 -0.323161 0.094161
-0.572022 0.033823 0.113017
0.225692 -0.298531 0.199684
-0.602629 0.356357 -0.049811
0.608264 0.229315 0.172023
0.156847 -0.416450 -0.142599
0.159036 0.233656 0.307813
-0.607451 0.531558 -0.080759
-0.691991 -0.065226 -0.053107
-0.325998 0.407444 0.136107
-0.014848 0.049424 0.310803
0.040480 0.562466 -0.330283
0.654216 -0.381266 0.037906
-0.647293 -0.085374 -0.308122
0.511999 -0.643545 -0.044866
0.339171 0.423858 0.123293
0.511208 -0.265047 -0.110134
-0.115182 0.062724 0.291944
-0.016647 0.574708 -0.341824
-0.281590 -0.135773 0.087900
-0.535662 -0.324576 0.078433
0.445601 0.124047 0.163276
-0.655165 -0.203020 -0.313427
-0.013476 -0.405892 -0.172544
0.739837 0.517177 0.104107
0.356632 0.481518 -0.264142
0.559051 -0.515699 0.292109
-0.587317 -0.484485 0.097422
-0.659505 -0.417375 -0.277255
0.151347 -0.020400 0.139541
-0.661834 -0.214280 0.038616
0.044266 -0.329568 0.385787
-0.089824 -0.278549 -0.207067
-0.048748 0.170002 0.281615
0.012437 0.364106 -0.300777
-0.331451 -0.299482 -0.243368
-0.102374 -0.439378 -0.181462
-0.496621 -0.568762 -0.224303
0.260783 0.204800 0.329582
-0.510202 0.527892 -0.415274
-0.372358 0.518698 -0.390928
0.615248 -0.473266 0.195368
0.374196 -0.306482 -0.125630
-0.534370 0.282433 0.055421
0.188846 0.545201 -0.302810
0.432689 0.619903 0.075810
0.394124 0.515268 -0.263758
-0.603841 0.483778 -0.207512
-0.667011 0.042780 -0.125025
-0.672289 -0.002618 -0.123193
-0.346783 -0.070411 -0.285321
-0.136392 -0.297761 -0.211451
-0.325867 0.036672 -0.300296
-0.154030 0.482053 0.004973
-0.533700 0.196823 0.001096
-0.526851 0.285051 0.016079
-0.092164 0.085080 0.111230
0.678628 0.177156 -0.158587
-0.546562 0.256730 0.106508
0.430725 -0.473077 0.439065
-0.692660 -0.389651 -0.241517
-0.016813 0.121884 0.298008
-0.619613 0.177568 -0.303003
0.712373 0.129659 -0.144840
-0.737673 -0.574838 -0.106342
0.337752 0.527339 0.076061
0.336787 0.089080 0.151324
-0.497492 -0.501266 0.115144
-0.672952 -0.000118 -0.118108
0.339376 0.263191 -0.229418
0.514497 -0.364520 0.258734
0.423595 -0.206351 -0.134704
-0.599154 0.362522 -0.050298
0.573363 0.453239 0.127723
0.328366 0.105836 -0.204157
-0.449745 0.011236 -0.316376
-0.306047 0.458567 0.057866
-0.257263 0.231136 -0.322433
0.430216 0.358572 -0.230831
-0.108085 0.035980 0.166886
0.106617 -0.316437 -0.168106
-0.452700 -0.555620 -0.219311
0.662750 -0.360717 0.003657
0.686254 0.163500 0.186147
0.756928 0.371119 -0.075308
-0.242088 -0.182930 0.102539
-0.421709 -0.241606 0.082973
-0.085794 0.521466 0.217850
-0.221489 -0.064677 -0.265617
-0.172762 0.520004 0.129312
-0.576769 -0.028897 0.101708
-0.507539 0.332333 0.180751
0.183613 -0.001414 -0.209604
-0.505530 0.445670 -0.004795
-0.579329 0.483299 -0.341108
-0.121519 0.049757 0.254084
-0.183573 0.437258 0.139120
-0.425472 0.078498 0.237987
-0.647923 0.006110 -0.250538
-0.599465 0.554407 -0.189505
-0.600336 0.633763 -0.137790
-0.475379 0.406118 -0.388567
-0.327756 0.430063 0.159058
-0.070471 -0.402843 -0.182481
0.572315 -0.305442 -0.093091
0.473754 -0.593498 -0.059795
-0.395174 -0.339868 0.104266
-0.205298 -0.006937 0.078327
-0.558487 0.268984 0.178617
-0.530930 0.285194 0.038346
0.384210 -0.224155 -0.138144
-0.660781 0.005605 -0.180911
0.370414 0.160399 -0.206603
0.445222 -0.496544 -0.081192
0.182094 0.324110 -0.265876
-0.575506 0.472169 -0.368484
-0.723943 -0.471946 -0.120104
0.033147 0.413907 0.086587
-0.766100 -0.559872 0.057117
-0.310453 -0.099271 0.076851
0.592164 -0.023426 0.212860
0.042897 0.349436 0.057984
-0.567756 0.018124 0.080524
0.255903 0.614819 0.047490
0.493341 0.238063 0.151539
-0.278008 -0.173671 0.095013
-0.176744 0.449430 0.109190
-0.256201 0.269946 -0.328936
0.523789 0.250494 -0.196779
-0.439194 -0.186215 0.070553
-0.594432 0.612205 -0.182661
0.256517 -0.520761 0.453743
-0.358301 0.051615 -0.308224
-0.442940 -0.378164 0.102968
-0.382772 -0.233357 0.087984
-0.666189 -0.195404 -0.270493
0.702710 0.602059 0.123473
0.583972 -0.684844 0.240213
-0.514650 -0.396291 0.094245
-0.256911 0.492243 -0.016103
0.110332 0.034079 0.305754
0.652642 -0.371554 0.052213
-0.490306 -0.464312 -0.241235
-0.117519 -0.098315 0.108548
0.417936 -0.606926 -0.066702
-0.425239 -0.248467 0.083571
0.232044 -0.065303 -0.190611
-0.701749 -0.594356 0.095524
-0.499397 -0.520197 -0.233119
-0.196761 0.265175 -0.318299
0.007630 -0.063939 0.245114
-0.209163 -0.435710 -0.199728
-0.043005 -0.179172 -0.216437
-0.521535 0.400088 -0.395151
-0.591951 0.116135 -0.357913
-0.677449 -0.052697 -0.124774
-0.733140 -0.616584 -0.155703
0.396784 -0.145658 -0.149577
-0.068404 0.429254 0.236591
-0.745219 -0.396008 0.040563
-0.376070 0.020529 0.179383
0.289000 -0.441712 0.445503
0.462888 -0.385658 0.315897
0.352640 0.184626 -0.213707
-0.085008 -0.633611 0.206039
-0.493206 -0.109871 0.048495
-0.076037 0.416839 -0.324463
-0.223192 -0.287199 0.305705
0.598268 -0.009472 0.211466
-0.558677 -0.082151 0.032913
-0.543348 -0.252993 0.064845
-0.593192 0.320387 -0.362152
0.318875 -0.365493 -0.124610
0.726405 0.499263 -0.206130
-0.631541 0.393477 -0.110324
0.535789 -0.567040 -0.054104
-0.589273 0.506392 -0.273357
0.733431 0.402644 0.071146
-0.214577 -0.420972 0.179661
-0.531514 0.396710 -0.396218
-0.291281 0.642054 -0.047561
0.055744 -0.152184 0.146432
0.381098 -0.586728 0.274945
0.256360 -0.413128 -0.126737
-0.534207 0.033755 -0.334200
-0.549459 -0.211547 -0.294503
0.414568 0.474936 0.220672
-0.244638 -0.442968 0.330125
-0.587190 -0.068788 0.025904
0.201067 -0.561780 -0.110286
0.599020 -0.707522 -0.019485
0.316079 0.432974 0.088722
-0.675437 0.018312 -0.093681
0.388465 0.508315 -0.263496
0.348603 0.244902 0.337183
-0.179306 0.411604 0.010590
-0.545465 0.609015 -0.083852
0.143044 0.192675 -0.249706
0.300084 0.452075 0.082793
0.661101 -0.456395 -0.044016
-0.555742 -0.375958 -0.267247
0.544701 -0.652596 0.313298
0.679078 -0.068570 0.087797
-0.615354 0.359027 -0.218751
0.289920 0.400322 0.090021
-0.038458 -0.443531 0.391739
0.258222 0.275635 -0.244962
-0.231353 -0.197142 0.106757
0.648470 -0.379277 0.070332
-0.082726 -0.400263 -0.184948
-0.012676 -0.411339 0.390456
-0.344419 0.095608 0.051694
0.699582 0.001509 0.017773
0.005629 0.511149 0.234723
0.508329 -0.152394 0.221209
-0.039644 0.226823 -0.285752
0.625547 -0.712218 -0.002094
-0.346665 -0.603018 -0.193643
-0.297844 -0.564393 0.158979
0.412202 -0.350138 0.239366
0.471886 0.542981 0.095521
0.013507 0.400935 0.185717
-0.463520 0.414879 0.173814
-0.767626 -0.560377 0.080706
0.734716 0.521679 -0.208615
-0.217167 -0.436138 0.360954
0.192873 -0.059074 0.153054
0.417080 -0.387176 0.457269
0.498880 0.189780 -0.190444
-0.294917 0.273887 0.015198
-0.124559 -0.083399 -0.246388
-0.017892 -0.079969 0.198415
-0.313188 0.338112 0.025400
-0.030160 -0.020661 0.320335
0.611183 -0.267736 -0.093161
-0.182173 -0.362144 -0.207931
-0.671017 -0.001867 -0.129664
0.397422 -0.270920 -0.127915
-0.701866 -0.082339 -0.009533
0.670224 -0.195083 0.061057
0.097582 0.246251 0.156953
0.028990 0.047192 -0.243504
-0.164493 -0.037455 0.090317
-0.376215 -0.563093 0.145813
0.098066 0.429885 -0.297956
0.610090 0.137010 -0.162997
0.089174 -0.036546 -0.219154
0.426261 -0.522322 0.434189
-0.295354 -0.562287 0.159027
0.536720 -0.329195 -0.094882
-0.240249 -0.401046 0.331073
0.167126 -0.505147 -0.125637
-0.715845 -0.409458 -0.127149
-0.313366 0.611806 0.164721
-0.325019 -0.206251 -0.258350
0.164216 -0.140809 0.162388
0.638344 -0.266074 0.192410
0.439570 0.023910 -0.171693
-0.089627 -0.513774 -0.166553
0.430370 -0.329107 -0.112460
0.231353 0.331641 -0.259038
-0.307334 -0.170367 0.089602
0.585084 -0.667283 0.244561
0.542492 -0.156678 -0.123618
-0.404877 0.267250 0.208905
-0.675482 -0.282175 -0.271317
0.353140 0.578685 0.069766
0.437668 0.340674 -0.226521
-0.075138 0.035036 0.303322
-0.669319 -0.169520 0.029677
0.618470 -0.388921 0.227773
-0.014435 0.185467 0.076735
0.093538 0.276138 0.289685
-0.066214 -0.438968 0.386370
0.209275 -0.391721 -0.138197
-0.670705 -0.079442 -0.177283
0.167437 -0.142864 -0.187933
0.671709 -0.265522 -0.083547
-0.063837 -0.544830 0.194257
0.283846 -0.492324 0.453362
0.682455 -0.203705 -0.010564
0.397591 0.600624 0.073331
0.259579 0.320591 0.309456
-0.653713 -0.117026 -0.291942
-0.689841 0.023736 -0.006971
-0.474651 -0.369100 0.096171
-0.689436 -0.176990 -0.133162
-0.525920 0.318984 0.031099
-0.486437 -0.236522 -0.279797
-0.609575 0.405541 -0.222644
-0.595223 0.697577 -0.127821
0.727189 0.049584 -0.103908
0.653618 0.351492 0.158487
0.371987 -0.272889 -0.131776
-0.187719 0.437262 0.215509
-0.587215 0.649563 -0.097725
0.382418 0.269010 0.338619
0.262048 0.088949 0.139004
0.002801 -0.065521 0.252338
-0.682971 0.035603 -0.007879
-0.403974 0.264135 0.209590
-0.184291 -0.208312 0.116451
-0.624053 0.165615 -0.285935
-0.309942 0.124754 0.038382
0.276063 0.345297 0.307926
0.607775 -0.743760 -0.011803
-0.089500 0.513819 0.218554
0.191696 -0.579491 0.242421
0.740392 0.464407 0.069850
-0.538928 0.348728 0.119451
-0.496696 0.532228 -0.001598
0.185957 0.112166 0.333166
-0.520822 0.469722 0.092609
0.692889 0.511842 -0.213830
-0.485425 0.591106 -0.070855
0.449014 0.161704 0.157359
-0.347092 -0.224084 -0.258926
0.002519 -0.115048 -0.219955
0.121212 -0.086403 -0.205283
-0.031183 -0.617412 0.212140
-0.487141 -0.114342 0.050266
0.286221 -0.418827 0.441106
-0.452468 -0.440263 -0.239125
0.288923 -0.268301 0.204923
-0.286043 -0.200214 -0.252952
0.659575 -0.091619 0.180218
-0.471963 -0.580211 -0.218260
0.529487 0.530288 -0.243989
0.095029 -0.242222 0.168415
-0.467551 -0.444931 0.110394
0.624009 -0.491731 0.136789
0.571704 -0.731445 0.279346
-0.618454 0.206781 -0.292015
0.627550 -0.454601 -0.058300
-0.565567 -0.279684 0.065769
-0.410254 -0.591974 0.145162
-0.087375 -0.446758 -0.177715
-0.528835 0.421477 0.107627
-0.097113 -0.182063 -0.224875
0.571135 0.557246 -0.241750
-0.624745 0.374272 -0.158655
0.234814 -0.306361 -0.148669
-0.548461 0.063620 -0.341693
-0.730418 -0.444737 -0.068778
0.293036 -0.197836 -0.157731
0.626225 -0.026922 -0.132120
-0.302311 0.280172 0.012896
0.007202 -0.067109 0.235671
0.063936 0.031737 -0.235073
0.415706 -0.037798 0.186192
0.020512 0.593139 0.012347
-0.463040 0.523529 -0.406735
-0.451767 0.028567 -0.319693
-0.323978 0.478786 0.167356
0.688942 0.108736 0.139111
-0.579984 0.114403 0.204021
0.733924 0.379155 0.054559
-0.205449 -0.049525 -0.265576
-0.347776 -0.122894 -0.276454
-0.486565 0.070554 0.229265
0.114499 -0.001958 0.175017
0.476273 0.423560 -0.234409
0.028892 0.028270 0.321666
-0.005900 0.154885 0.120470
0.216443 0.308257 -0.257476
-0.252761 0.545311 -0.375757
-0.576742 -0.362598 0.078193
0.025633 -0.305718 -0.183325
0.194595 -0.345795 0.202682
0.367012 -0.402651 0.451664
0.358401 0.457038 -0.259637
0.295224 0.564671 0.062614
0.655398 0.540231 0.126300
0.685226 0.109680 0.159879
0.630637 -0.564093 0.057908
0.127105 -0.690123 -0.100413
0.301810 0.394656 -0.258247
-0.679198 -0.170187 -0.184814
0.578455 -0.526609 -0.054015
0.084957 0.232509 -0.266154
0.608414 -0.463817 0.238128
0.056966 -0.507487 0.418504
0.173823 0.195023 0.316903
-0.300639 0.062325 -0.300544
0.622698 -0.364022 0.219522
-0.679943 -0.422674 0.071489
-0.163443 0.016000 -0.269915
0.674113 0.264048 0.176920
0.636098 -0.034305 -0.129219
-0.261165 -0.471455 -0.202165
-0.715243 -0.511723 -0.190961
-0.609534 0.031681 -0.346283
0.242927 0.303557 0.309637
-0.585017 0.526440 -0.284633
-0.476188 -0.497827 0.118071
0.298937 0.495785 -0.276125
0.324839 0.518089 0.075521
-0.574767 0.574276 -0.312060
-0.118914 -0.536665 0.183756
-0.394383 -0.083720 0.061195
-0.317892 0.117838 -0.312947
0.756883 0.315869 -0.107769
0.561805 -0.271480 0.250535
-0.655402 -0.497288 0.088382
0.672821 -0.302909 -0.016897
0.059980 0.413607 -0.301444
0.131546 -0.401274 -0.149389
-0.499261 0.526952 0.009226
-0.270510 -0.129783 -0.262508
0.601072 0.372866 0.146131
0.099135 -0.072962 0.139964
-0.547222 -0.472628 0.102003
0.315422 0.404893 0.304170
0.772193 0.556160 -0.048785
-0.233575 -0.433627 0.275494
0.242120 -0.084444 0.165553
-0.027192 0.137091 -0.268253
-0.223967 -0.507344 0.179602
-0.575403 0.654338 -0.261210
-0.043823 -0.050784 0.298562
-0.160683 0.538794 -0.359430
-0.111205 0.039497 0.178771
-0.129919 -0.302815 -0.209512
0.434147 -0.048041 0.191000
-0.392735 -0.385297 -0.238720
-0.401107 0.596767 0.152820
-0.430830 0.308819 -0.364465
0.414496 0.077152 0.166210
-0.023486 0.518000 -0.333194
0.665706 0.114900 0.201199
-0.258870 0.310496 0.014851
-0.622728 0.083336 -0.341848
-0.610889 0.585204 -0.109141
0.658841 0.413146 -0.202467
0.062042 0.029596 0.326913
0.563829 -0.030402 0.209381
0.241004 -0.387739 0.428288
-0.721445 -0.428824 0.065693
-0.681496 -0.286834 -0.241366
0.767476 0.340254 -0.150942
-0.439347 -0.223771 0.076991
0.653225 -0.145626 0.182786
-0.255929 -0.286599 -0.233113
-0.324045 0.392741 0.116782
0.272147 0.465182 -0.275283
-0.413093 -0.592658 0.144811
0.659331 -0.353072 0.026778
0.065263 0.172481 0.302855
0.480830 0.226649 0.151437
0.549904 -0.032785 0.207491
-0.453131 0.011436 -0.316970
0.404461 0.488224 0.093809
-0.124260 0.404705 0.231592
-0.435712 0.092954 0.233808
-0.024811 -0.068688 0.133225
0.235893 -0.010081 0.151727
-0.420385 0.509501 -0.397276
-0.315687 0.225602 -0.331129
0.602390 0.432440 0.136096
0.713232 0.272818 -0.169335
-0.189066 0.378526 0.014671
-0.639363 0.135400 -0.017852
0.045220 0.235683 0.257207
-0.436325 0.439320 0.174099
0.367204 -0.481876 -0.096600
0.038695 -0.484796 0.411581
-0.635863 0.365678 -0.103278
-0.000561 0.205572 0.286290
-0.064178 0.131204 -0.273348
0.687906 -0.072003 0.037756
0.765248 0.513602 -0.036211
0.632965 -0.501453 0.082329
-0.314960 0.469262 -0.372941
0.497891 -0.692724 -0.038732
0.428036 0.251749 -0.212808
0.493264 0.338542 0.328784
-0.236170 -0.412191 0.302295
-0.664194 -0.169986 -0.266293
0.453835 -0.018943 0.189244
-0.675464 0.120041 -0.033317
0.651631 -0.117349 0.208193
-0.074671 -0.100187 -0.235260
-0.685586 -0.225256 -0.182675
-0.413878 0.579806 -0.408301
-0.084625 0.002071 0.273728
0.021535 0.234080 0.074309
-0.422805 0.167392 -0.338801
-0.349380 0.065227 -0.309093
-0.465809 0.256165 0.200750
0.500014 -0.301195 0.245444
0.187754 0.343321 0.082959
-0.611789 -0.273339 -0.294163
0.123377 0.035160 0.275611
0.419997 0.180231 -0.201827
-0.556454 -0.349058 -0.271993
-0.039451 -0.434476 -0.171914
-0.108438 0.455272 0.225502
-0.245236 -0.467412 0.318912
-0.665792 -0.222572 -0.288733
-0.660875 -0.327794 -0.292897
0.378544 -0.238761 0.214640
0.419521 0.096428 -0.187484
0.110521 -0.010993 -0.220027
-0.715395 -0.294129 -0.061329
-0.657152 0.060168 -0.168349
0.541895 0.407560 0.130387
0.197707 -0.095305 -0.191119
0.013049 0.463121 0.225017
0.203830 0.105367 0.301222
-0.288417 0.498874 -0.014151
0.194700 0.483264 0.060022
-0.036004 0.509858 0.228070
-0.501707 -0.011916 -0.320973
-0.352181 0.284598 0.205783
-0.168509 -0.235570 -0.227458
-0.440089 -0.300568 -0.261122
-0.411052 0.637515 -0.417766
-0.504656 -0.170362 -0.294192
0.668047 -0.141807 0.104437
-0.324183 0.302788 0.064282
0.164873 -0.325497 0.405004
-0.025100 -0.346089 0.377175
-0.285769 0.129552 0.041548
0.250759 0.516381 0.063581
-0.288046 -0.558714 0.159620
-0.663831 0.184294 -0.030307
0.510669 -0.508790 0.282930
-0.610047 0.301301 -0.281784
0.409714 -0.625516 -0.064861
0.001713 -0.317678 0.165990
0.002362 -0.359418 -0.177926
-0.525644 0.348616 0.047140
-0.096958 0.031982 0.300244
0.086152 -0.297796 -0.174694
0.030754 0.154219 0.300299
-0.636607 0.343466 -0.112379
0.140915 0.187856 0.312702
0.081925 0.474236 -0.308254
0.711167 0.182016 0.061622
0.296452 -0.219506 -0.153437
0.089203 -0.607237 -0.120936
0.191485 0.529070 -0.299598
-0.702387 -0.352750 0.055749
0.260574 -0.451472 -0.119442
0.614679 -0.597795 -0.035782
0.677771 0.100971 0.195270
-0.567646 0.481644 -0.405623
-0.174837 -0.340040 0.351406
0.593494 -0.707808 -0.020348
-0.589828 0.631892 -0.196045
-0.156271 0.529772 0.045405
-0.172000 -0.257487 -0.224262
0.182535 0.332427 -0.267235
-0.475550 -0.006159 0.244286
0.268848 0.386318 0.180222
0.430818 0.024694 -0.173273
0.556900 0.310593 0.149553
0.044780 0.036080 0.322946
-0.564088 0.146072 -0.358464
-0.615386 -0.429248 0.083281
0.134195 0.272742 0.150435
-0.136676 -0.378556 -0.197594
-0.295976 0.540021 -0.381983
-0.647379 0.208452 -0.133720
-0.673730 -0.546212 0.093775
-0.304003 -0.124773 -0.268901
0.462266 -0.411888 0.303751
0.359664 0.086134 -0.195597
0.069059 -0.019120 0.235420
-0.455737 -0.552534 -0.220344
-0.293993 -0.095953 -0.272208
0.019939 -0.517500 -0.147818
-0.252618 -0.287910 0.118866
-0.093325 -0.333618 -0.198168
0.641974 -0.270548 0.170021
-0.160155 0.265288 0.038933
-0.091359 0.210786 -0.291533
-0.664387 -0.266208 -0.304076
0.345950 -0.191836 -0.150025
0.056163 0.494060 0.035286
0.582456 0.199601 0.172875
0.693593 -0.008790 0.044245
0.540499 -0.104357 -0.132951
-0.635079 -0.483374 0.089344
-0.083842 0.060652 -0.264454
0.611956 -0.107591 0.230612
-0.532165 0.269251 0.035627
-0.432040 0.614218 -0.417222
-0.568699 0.102627 0.135677
-0.630085 0.337736 -0.151240
-0.177648 0.407253 0.089137
0.638225 0.259240 -0.179386
-0.481350 -0.342864 0.090550
0.342058 -0.583006 0.267857
-0.629225 0.020019 -0.343997
0.437253 -0.105208 0.201351
-0.585440 0.117807 -0.005919
0.079589 0.438708 -0.302526
0.475860 0.068934 0.177758
0.350571 0.569426 0.070935
-0.064589 -0.294192 0.150999
-0.729588 -0.605236 -0.168306
0.339240 0.373768 0.313460
0.292492 -0.285162 0.208414
0.451844 -0.546719 -0.071464
0.710177 -0.058403 -0.075318
-0.529555 -0.276089 -0.280109
-0.178149 0.407523 0.092024
0.024362 0.630234 -0.344607
0.702876 0.231392 -0.163916
-0.308036 -0.345052 0.119548
-0.169410 0.078090 0.069621
0.127618 0.056735 -0.228859
0.445194 -0.173632 0.214438
0.644457 0.224241 0.178873
-0.696330 -0.048547 -0.019637
0.265694 -0.123267 -0.175079
-0.610775 0.519308 -0.148769
-0.148810 0.537810 -0.006093
-0.633331 0.155534 -0.020321
0.206007 0.412633 0.074045
-0.270195 0.578535 -0.033148
-0.436724 -0.519468 0.128312
0.723510 0.065574 -0.074434
-0.707725 -0.489136 -0.218477
0.128631 -0.632080 0.241057
0.203165 -0.713696 -0.083795
0.067500 0.169192 -0.258140
0.786704 0.525430 -0.145892
-0.578384 0.549579 -0.307007
0.622655 -0.502461 0.137805
-0.498428 0.170138 -0.351762
0.302799 -0.459908 0.450913
0.528704 0.149438 0.172631
-0.104397 0.098596 0.187859
-0.253240 -0.475305 0.361737
0.233833 0.137700 0.331248
-0.251567 -0.314393 -0.227609
-0.282459 -0.060052 0.074725
-0.583417 0.000583 0.155312
0.351160 -0.280545 0.217308
-0.537199 0.274130 0.065892
-0.143456 -0.330577 -0.206970
-0.464136 -0.209780 -0.280717
0.502193 -0.286196 -0.107984
0.286721 0.320295 0.313989
-0.102220 -0.572610 0.192699
-0.041306 0.169786 -0.276211
0.577758 -0.685361 0.273702
-0.721350 -0.540459 0.084921
-0.354571 0.318268 0.208433
0.417617 0.322545 0.335218
-0.285292 -0.360842 -0.225185
-0.114772 0.654117 -0.020488
-0.533358 0.342213 0.085303
0.633641 0.375073 -0.200077
-0.711283 -0.366100 -0.126293
0.124660 0.555411 0.036040
0.566471 0.068668 0.192768
-0.229132 -0.345654 -0.218524
-0.465232 0.543900 -0.410603
-0.561008 0.199712 0.194744
0.629433 0.372816 0.150823
0.730319 0.499070 0.145147
0.268303 0.221885 -0.234047
0.611796 -0.117446 0.232282
-0.657435 0.207534 -0.079573
0.675357 -0.075937 0.103671
-0.012685 0.566953 0.222096
0.454278 0.275948 0.221261
-0.200372 -0.020050 -0.269810
0.728215 0.328933 -0.176518
0.200956 -0.279356 0.192299
-0.164032 -0.634650 -0.158039
-0.653222 0.090817 -0.171577
-0.185038 0.413529 0.133045
0.023963 0.368584 0.109704
-0.474971 -0.455833 -0.240162
-0.550128 0.329745 0.169126
-0.512604 0.549153 -0.419330
-0.135312 0.464724 0.219438
0.294530 -0.618356 -0.085114
0.025113 0.257680 -0.280368
-0.514807 0.244301 -0.367230
-0.557101 0.275124 -0.379519
-0.501736 0.566417 0.046049
0.281362 0.409213 0.224064
-0.290674 0.590860 -0.389857
-0.475536 -0.416691 -0.246991
0.725676 0.335642 0.073656
0.360850 0.358354 0.319681
-0.670605 -0.109070 -0.195369
0.011279 0.151998 -0.264466
-0.101382 0.581807 -0.005832
0.191147 -0.045768 0.150479
-0.624368 0.475763 -0.100625
-0.649976 0.232048 -0.105627
-0.474015 0.360831 0.181383
0.512099 0.306027 0.171836
0.308837 0.186278 -0.221225
0.049271 0.520542 0.062019
0.568680 -0.456113 0.283445
0.314488 0.430387 0.208868
-0.606361 0.508741 -0.076652
-0.414169 0.424618 0.180288
0.020474 -0.214744 -0.199833
0.392048 -0.763415 -0.044046
-0.429402 -0.452525 -0.233206
-0.692246 -0.335511 -0.211720
0.227174 0.599701 0.045347
-0.505942 -0.287504 0.076962
-0.266170 -0.010753 0.068931
0.067412 0.273813 -0.276159
-0.500740 -0.348961 0.088397
0.090818 0.215181 -0.262204
-0.355489 0.676668 -0.412345
-0.632131 0.148555 -0.252103
0.636275 0.468074 0.135559
-0.094130 -0.385780 0.372606
0.382071 -0.077627 -0.163714
-0.194198 -0.256284 -0.228135
-0.205326 -0.082135 0.091263
-0.571948 0.558838 -0.079590
0.135893 0.337861 0.075334
-0.698719 -0.294965 -0.152515
-0.725089 -0.607741 -0.194257
0.691456 -0.096885 0.003721
-0.165634 -0.231963 -0.227604
0.513358 0.042009 0.188584
0.070379 -0.138293 -0.204748
0.197009 -0.354450 -0.146636
-0.560575 0.149484 0.119232
-0.367755 0.319744 0.206002
0.075234 0.063428 -0.238661
-0.716158 -0.356539 -0.094120
0.341992 -0.360176 -0.121708
0.564917 -0.073378 0.216956
0.049876 0.556091 0.023572
0.713238 0.222763 0.074480
0.510579 -0.544356 -0.062171
-0.593219 0.442919 -0.289471
0.351309 -0.393713 0.447532
-0.168526 0.174310 -0.297999
0.014906 -0.059258 0.241878
0.156143 -0.453632 0.425614
-0.500478 -0.443805 0.104763
0.593194 -0.538915 -0.049464
0.254073 0.152728 0.328922
-0.634793 0.408725 -0.083614
0.049814 0.550938 -0.326757
0.021232 -0.007130 -0.235437
-0.117423 -0.451508 -0.181859
-0.272142 -0.188377 -0.252694
0.123578 0.042309 0.298890
-0.330679 0.467528 0.186692
0.416526 -0.501115 -0.085144
0.364516 -0.127906 0.193245
-0.395854 0.172321 -0.335198
-0.125850 -0.433253 -0.186393
-0.532100 0.462304 0.149550
0.691871 0.568758 0.127414
-0.450493 -0.355692 0.097853
-0.540932 0.343361 0.173338
0.682679 -0.146212 0.022250
0.648601 -0.340044 0.092843
0.576792 0.454218 -0.223086
0.603331 0.606993 0.106212
-0.051238 0.390145 0.246156
-0.122736 -0.558098 -0.164393
-0.057986 0.213773 -0.286535
0.046487 -0.194924 -0.198948
0.068855 0.184415 -0.260536
0.586070 -0.060040 -0.133052
-0.580950 0.499114 -0.322926
-0.729028 -0.386923 -0.042116
0.305947 0.650389 0.049633
-0.125657 -0.622490 0.197412
0.426017 0.462973 0.152206
-0.503203 -0.024141 -0.319116
0.663026 -0.422623 -0.034491
-0.705946 -0.386851 -0.167602
0.236618 -0.364922 -0.138293
0.712296 0.252466 -0.165988
0.222759 0.504426 -0.290192
0.503157 -0.722345 -0.032765
0.418955 -0.545346 0.460291
-0.293184 0.533532 0.032290
-0.402011 0.097393 -0.323320
-0.279412 -0.388211 -0.219504
-0.623998 0.172922 -0.021772
0.244084 -0.310714 -0.146389
0.620969 -0.209711 0.249675
0.594260 -0.562353 0.256773
0.062601 -0.475366 0.413906
0.399437 -0.350734 0.237360
-0.438991 0.022792 0.245341
0.607903 -0.604723 0.157497
-0.561524 0.143429 0.120810
-0.026317 -0.495998 -0.159157
-0.465481 -0.558819 0.130335
0.700033 0.009808 0.020234
0.431589 -0.257434 0.226613
-0.566952 -0.163969 0.045626
-0.136394 0.330726 0.031595
-0.725735 -0.430011 -0.085533
0.444746 -0.382562 0.416391
0.070028 -0.038035 -0.222060
-0.722819 -0.595343 -0.199263
0.577861 0.267786 0.160381
0.114455 0.473302 0.048485
0.226204 0.102792 0.234783
0.720558 0.024773 -0.082536
0.654118 -0.201850 0.144642
0.428934 -0.466745 0.452551
-0.037948 0.341508 0.045998
0.653129 -0.448364 0.004095
-0.630634 0.431694 -0.067401
-0.546294 0.132266 0.031374
0.666971 -0.071292 0.152030
0.416012 -0.065338 -0.160224
0.281563 0.025190 -0.198007
0.431379 0.453237 0.228874
-0.217825 -0.092750 0.091026
0.210716 0.655389 0.033045
-0.647329 0.156786 -0.164575
-0.220653 -0.086417 -0.261738
0.027967 0.117978 0.306075
-0.270250 0.092988 0.050403
0.235780 0.135036 0.317347
-0.370315 -0.050930 0.105782
-0.600563 -0.270005 -0.292882
0.002154 0.234394 0.071054
-0.454735 0.130243 0.224250
0.715883 0.132708 -0.144786
0.253187 0.478082 -0.280633
-0.566354 -0.408350 -0.263425
-0.381338 0.197322 0.224827
-0.247944 0.477476 -0.012081
-0.727227 -0.349365 0.051064
0.426080 0.462548 0.161290
-0.535342 0.394798 0.127224
0.361320 -0.249216 0.213595
0.036845 0.136536 0.304348
0.624018 0.546306 0.120072
-0.540994 -0.400582 -0.260573
-0.654952 -0.105020 0.020949
0.410292 0.276251 0.336041
-0.211467 0.056180 -0.284761
0.531470 0.221264 0.160726
0.358655 -0.690269 -0.062149
-0.002122 -0.071144 0.246353
0.530940 -0.695715 0.318447
-0.173038 0.577236 0.164693
-0.701506 -0.608435 -0.251310
0.285036 -0.075063 -0.180180
0.724250 0.305336 0.063469
-0.486384 0.440538 0.165623
-0.347397 0.200838 0.130182
-0.376454 -0.251518 0.092153
-0.033009 -0.442232 0.392415
0.011398 0.423611 0.210608
-0.638647 0.139806 -0.221846
0.356325 0.597690 -0.284185
0.454089 -0.549998 0.280678
0.266171 0.361306 0.103885
0.614943 0.433130 -0.213156
0.200622 0.109513 0.323320
-0.238793 -0.368083 0.342667
0.200030 -0.702782 -0.086191
0.333657 0.053298 -0.194241
-0.740346 -0.378570 0.024381
-0.569703 -0.210074 0.053107
-0.553563 -0.341134 -0.272880
0.423559 0.462987 0.234096
0.243337 -0.538471 -0.107317
-0.398471 0.427086 -0.379474
0.136460 -0.231451 0.173403
0.368483 -0.341524 0.441387
-0.703206 -0.130893 -0.030989
0.157947 0.226091 0.308935
-0.551015 0.167446 -0.359983
-0.606986 -0.255870 0.054831
0.548423 -0.650037 0.313473
-0.300323 0.487264 0.043726
-0.034947 -0.056562 0.153467
0.767184 0.324133 -0.158898
-0.227388 -0.333748 -0.220285
-0.192192 0.441170 0.188311
-0.403141 0.162404 -0.334695
0.151670 -0.067339 -0.203534
0.446989 0.311666 0.341941
-0.165072 0.532714 0.095009
-0.561698 0.233311 0.174964
-0.076947 0.103786 -0.270739
-0.609179 -0.596947 -0.238040
0.311669 -0.500356 0.459339
-0.481349 0.354123 -0.380604
-0.680876 -0.097196 -0.132480
-0.725951 -0.526165 -0.141278
0.515799 -0.452302 -0.077150
-0.321670 0.206953 0.022299
-0.094398 -0.474028 -0.174181
-0.546745 0.360812 0.169116
0.397262 0.375670 0.322714
-0.091852 -0.142488 -0.230817
0.659136 -0.451196 -0.053670
0.582243 -0.303642 0.259445
-0.055214 0.304168 -0.301634
0.219275 -0.637916 -0.094176
-0.376395 0.004012 0.171370
0.264082 0.406708 0.084655
-0.588194 0.152728 -0.363590
0.676884 -0.190473 0.027564
-0.370561 0.127079 0.212497
-0.742551 -0.509889 -0.041363
-0.448488 0.250292 -0.357309
0.019013 0.114998 -0.256821
0.133419 -0.090662 0.148672
0.546933 0.344016 -0.209051
-0.369069 0.140474 0.212313
0.680839 -0.203720 -0.001781
-0.327574 0.113083 0.037479
0.225492 0.331108 0.302017
0.211651 -0.400559 0.425647
0.318497 -0.464820 0.454351
0.528733 0.545337 0.104503
0.261545 0.112612 0.176061
0.083473 -0.494509 -0.141282
-0.505449 -0.655524 -0.210829
0.141299 0.324784 0.078477
-0.235215 -0.403831 0.302050
0.477058 -0.628429 0.297969
0.255296 0.201091 0.329314
0.617877 -0.488679 0.171945
0.270451 -0.423125 -0.122689
0.149635 -0.005098 0.136625
0.482572 0.236552 0.150020
-0.373660 -0.288601 -0.252211
0.257235 -0.601002 0.256946
-0.224334 -0.165432 0.102459
0.757284 0.509517 0.004688
0.038177 -0.023541 0.300580
-0.701550 -0.324791 -0.154774
-0.271060 -0.641116 -0.174601
-0.612005 0.312548 -0.264477
-0.204746 -0.195338 -0.240366
-0.692577 -0.146882 -0.098258
-0.606140 -0.082777 0.025182
-0.586165 -0.278450 0.062155
0.318024 0.215583 -0.224751
-0.089848 0.288326 0.046579
0.209696 0.359258 0.294563
-0.558787 -0.200196 -0.297997
0.147121 -0.559942 0.231696
0.450852 -0.260420 -0.120898
-0.581381 0.118237 -0.005323
-0.548637 0.241095 -0.021059
-0.663880 -0.078058 -0.213585
-0.526227 0.658315 -0.089159
-0.396012 0.088817 -0.320854
-0.688836 -0.262432 -0.187006
0.695021 -0.004144 0.039233
-0.469877 0.570375 0.146005
-0.579306 -0.258776 0.059902
0.123397 0.601585 0.027885
0.187484 0.243044 0.310895
0.592967 -0.328914 -0.085641
0.505420 0.115492 -0.176579
0.215834 -0.505860 -0.117471
-0.223769 -0.465535 0.203273
-0.416944 -0.236440 0.082871
0.197909 -0.076185 -0.194376
0.192772 -0.165909 -0.179783
0.650473 -0.030084 -0.127572
-0.277976 -0.604634 -0.182021
-0.381643 -0.051117 -0.294399
0.410358 -0.328574 0.235350
0.598508 0.412084 0.138958
-0.377994 0.427467 0.185772
0.666371 0.175260 0.190921
-0.157424 0.419390 0.223588
0.124099 0.064420 -0.230762
0.091886 0.548595 -0.319406
0.606835 -0.519777 0.213588
-0.103821 0.032032 0.128040
0.081822 -0.597203 0.227324
-0.272861 0.095970 -0.301747
0.060141 -0.238568 -0.189182
0.453111 0.427717 0.172830
-0.337634 0.518918 0.176699
0.553499 -0.047390 -0.140608
0.567775 -0.565666 0.302149
0.486153 0.380457 0.310210
0.248709 -0.224686 -0.160430
0.116879 -0.033861 0.136165
-0.521470 -0.470391 0.105871
-0.035631 0.201817 0.070420
-0.107524 -0.444043 -0.181509
-0.500149 0.635200 -0.080875
0.627162 -0.482765 0.124948
0.404626 -0.063502 0.188786
-0.398048 -0.460197 0.124499
-0.554470 -0.148193 0.044973
0.155361 0.151545 -0.240593
0.281505 -0.738652 -0.066563
0.413158 0.349008 -0.232003
0.040533 -0.243723 0.159674
0.702154 0.292323 0.175936
-0.564201 0.441991 -0.409409
-0.672232 -0.122145 -0.194261
-0.167494 0.391763 0.024743
0.660583 -0.157725 0.135607
-0.558691 0.073605 0.064070
0.406205 0.151554 0.152036
0.145628 0.017672 0.159845
-0.581342 0.481914 -0.330980
0.221822 0.102406 0.244833
-0.030630 -0.031741 0.322164
0.182199 0.474446 -0.291731
0.638970 -0.580313 0.002991
0.339269 -0.320629 0.222243
0.642903 -0.153783 0.234090
-0.687584 -0.340522 -0.240037
0.180482 -0.261266 0.185804
0.327077 -0.380183 0.441202
0.298563 0.433979 0.262016
-0.095807 -0.466709 -0.175674
-0.468878 0.014608 -0.320116
0.076341 -0.044387 -0.219924
-0.156610 -0.294258 -0.215393
-0.501136 0.338305 -0.381150
0.419426 0.005687 -0.171884
0.520922 -0.085352 0.211752
-0.148728 -0.479945 -0.182135
0.413532 0.006108 -0.172929
-0.168890 0.383319 0.027339
0.711028 -0.081283 -0.093486
-0.562982 0.578945 -0.373391
0.445346 0.434426 0.256238
0.429732 -0.487842 0.435725
0.642965 -0.433159 0.068372
-0.439900 0.657254 -0.425927
0.617791 -0.514294 0.157252
-0.548463 0.693620 -0.384466
0.000367 0.387567 0.249264
0.360447 0.256086 0.337214
0.079592 0.256702 0.080003
0.513826 -0.265456 0.241575
-0.311191 0.589581 0.163401
0.431864 0.456748 0.120248
-0.631370 0.107463 -0.280567
-0.608680 0.236580 -0.327530
0.746827 0.283948 -0.071972
-0.345472 0.244227 -0.339253
0.240353 -0.620028 0.257433
-0.077521 -0.000597 0.106160
0.638668 0.326497 0.160319
0.444682 0.288890 0.289165
0.598550 -0.714153 -0.018422
0.010559 0.442408 0.226298
0.595295 0.275556 0.161923
-0.318878 0.322663 0.047199
0.538270 -0.741434 -0.023681
0.240680 -0.264951 -0.154827
-0.063349 -0.599768 0.203792
0.403427 -0.523536 -0.083449
0.570093 -0.621401 -0.039083
-0.104903 0.033881 0.115598
-0.490292 0.553064 -0.024092
0.455447 -0.084152 0.200732
0.577465 -0.097690 0.223213
-0.026006 0.449333 -0.321793
-0.716653 -0.182730 0.011457
-0.445976 -0.576465 -0.214613
-0.375118 0.189133 -0.334667
0.602466 0.535527 0.118368
-0.294696 0.537617 -0.381358
0.131207 -0.336463 -0.160599
-0.375032 -0.391221 0.116430
-0.389068 0.686580 -0.071373
0.323094 -0.106652 0.182747
0.444643 0.419677 -0.238965
0.499697 0.277980 0.145719
-0.292080 -0.003582 -0.287789
0.764017 0.319899 -0.144180
0.397959 -0.160719 0.204415
-0.343929 0.452382 -0.374820
-0.375939 0.249488 -0.345189
-0.670005 0.058973 -0.099155
0.282140 -0.085814 -0.178808
-0.307632 0.566333 0.130283
0.484737 -0.534793 -0.068084
-0.307533 -0.630270 -0.182491
-0.522018 0.465047 0.096346
0.587757 0.058740 0.197991
0.180292 0.097099 0.334582
0.633171 0.470114 -0.216510
-0.172267 0.004778 -0.269441
0.275249 -0.627896 -0.086657
-0.591078 -0.035048 0.175886
-0.354676 0.574277 -0.397573
-0.577162 0.071918 0.163527
-0.169899 0.354329 -0.329206
-0.184209 -0.463606 0.371124
-0.215414 -0.360456 0.220040
0.215953 0.307528 0.304499
0.270997 0.111966 -0.214686
0.437278 -0.055994 -0.158320
-0.603282 0.351712 -0.288733
0.537672 0.500147 -0.237450
-0.541364 0.431357 -0.403807
-0.032513 0.300974 0.053871
-0.445856 -0.626277 -0.206021
0.328708 0.086316 0.150466
0.240607 0.450950 -0.278042
0.482824 0.393325 0.123082
-0.435934 0.150360 -0.338038
0.286480 0.433577 0.291930
-0.203224 0.417657 -0.345608
0.122776 -0.662767 -0.105836
-0.698917 -0.518267 -0.266400
-0.244717 0.675364 -0.045604
-0.128735 0.636240 -0.370924
0.587996 -0.108211 -0.124444
0.613220 -0.370143 0.267444
0.017535 0.375862 0.148970
0.067227 0.260105 0.077376
0.192529 0.432358 -0.282782
0.355331 0.459129 0.301427
0.213298 0.061165 -0.215472
-0.372275 -0.599181 -0.198533
-0.570228 0.039490 0.106616
0.466162 -0.173423 0.217865
-0.594555 0.332123 -0.347793
0.449424 0.430869 0.213330
-0.386864 -0.582401 0.147377
-0.061617 0.547862 -0.344630
0.260743 -0.047327 0.162241
0.300548 0.174091 0.279828
-0.691327 -0.046632 -0.045709
-0.480036 0.518020 0.153337
-0.636194 0.369768 -0.057662
0.194410 0.652302 0.030884
-0.544104 0.650723 -0.433568
-0.341079 0.146140 0.063443
0.347721 0.166819 0.139751
-0.752368 -0.529733 0.000277
0.706202 0.138314 -0.147349
0.484921 0.329402 0.319939
0.298079 0.055856 -0.200557
0.260640 0.514772 0.065490
0.027353 -0.060914 0.204170
0.188985 0.319416 -0.263930
0.704401 -0.099523 -0.068246
-0.707006 -0.329901 -0.128126
-0.406261 -0.553937 0.139275
0.440598 0.443976 0.163904
-0.568411 0.083653 0.122878
0.232578 0.233253 -0.241903
0.044380 0.451436 0.047709
0.117895 0.256561 -0.264853
-0.525401 -0.311022 0.077795
-0.327645 -0.508679 0.144469
0.448144 -0.199017 -0.131912
0.139716 -0.491720 0.429456
-0.735092 -0.315125 0.033367
-0.599283 0.007763 0.010733
-0.670907 -0.011217 0.002171
-0.615778 0.211883 -0.303550
-0.108204 -0.644557 -0.147114
-0.423280 0.334800 0.194241
-0.058353 -0.623890 0.208768
0.721842 0.028895 -0.087075
-0.497638 0.632877 -0.431267
0.310934 0.047411 -0.196981
-0.268978 0.190492 0.033834
-0.058396 -0.084117 -0.235338
-0.603237 -0.230791 -0.300072
-0.537451 -0.167823 0.051161
-0.607758 -0.030920 0.015991
0.157357 -0.459338 0.426796
0.397794 -0.141086 0.201010
-0.211999 -0.268322 -0.229003
0.032706 0.596350 -0.337398
0.612371 -0.468079 -0.058487
-0.681304 -0.257189 -0.224863
-0.367009 0.609325 0.156289
0.667118 0.013642 0.201509
-0.612319 0.183463 -0.339185
-0.460745 -0.091961 0.050773
0.196563 -0.039287 -0.200948
-0.549349 -0.167112 -0.302132
-0.580960 0.409513 -0.375917
0.362812 0.474955 0.299939
0.374991 0.204256 0.187693
0.465806 -0.202625 -0.128375
-0.361207 0.165495 0.184367
-0.456208 0.614710 -0.421298
-0.464399 0.566178 0.147631
0.689651 0.459615 0.145830
-0.714603 -0.219154 0.030740
0.577165 0.511334 -0.232853
0.763105 0.315188 -0.142008
-0.545168 -0.450428 -0.252684
-0.276684 0.519039 -0.023980
-0.517060 0.522276 0.103262
-0.730356 -0.326186 0.001062
-0.455217 0.613913 -0.069791
0.664296 -0.154611 0.117254
-0.489292 -0.522000 -0.231140
0.428366 0.359856 -0.231358
-0.072061 -0.009430 0.155741
0.129701 -0.330118 0.189267
0.136470 0.013010 0.168013
0.032804 0.567434 0.179334
0.494779 0.313897 0.242829
-0.219401 -0.328223 0.131289
-0.132414 0.105015 0.281692
0.735924 0.185801 -0.070777
-0.351932 -0.422872 -0.225515
-0.700194 -0.458564 -0.241338
0.763837 0.358873 -0.120130
-0.478020 0.367744 -0.382399
-0.082698 0.369806 -0.317469
0.564498 0.421430 0.131733
0.343414 -0.174829 -0.153370
-0.194288 0.082068 -0.286379
0.151713 -0.521037 -0.125448
-0.601676 0.554358 -0.083729
0.339671 0.211948 -0.220551
0.714293 0.457013 0.150347
0.088126 0.153755 0.309853
0.133243 0.163185 0.315681
-0.368032 0.036430 0.145081
0.711905 0.271146 0.110373
0.340385 0.087584 -0.199031
0.623090 -0.499272 0.137323
0.620827 0.523112 0.123537
-0.153782 0.160799 0.057968
0.258961 0.110470 0.175614
0.074017 0.146993 0.308687
0.615900 -0.374790 0.250119
-0.137493 0.461558 -0.342308
0.126219 0.269259 0.159470
0.510028 0.504329 0.108471
-0.226576 -0.054122 -0.268273
0.629417 0.530877 0.123619
0.548802 -0.233628 -0.109333
-0.667882 0.161852 -0.049799
-0.610695 0.554876 -0.128154
0.273052 0.334427 -0.252631
-0.011075 -0.086947 0.153816
0.156563 0.289393 -0.264118
0.682194 -0.188165 0.000054
0.059983 0.264370 -0.275761
-0.467405 -0.459589 0.112941
-0.076723 0.132079 0.075636
-0.166587 0.196416 0.049723
-0.524212 0.482664 0.118709
-0.733269 -0.381921 -0.016089
-0.295715 0.582297 0.074924
-0.224796 0.419713 0.001682
-0.281929 0.558756 -0.013986
-0.490157 -0.319699 -0.266097
0.386065 0.016971 -0.179335
-0.176779 -0.105944 -0.251132
0.297067 -0.504653 0.457667
-0.013130 0.575223 -0.341331
-0.041259 -0.592752 -0.144974
0.691875 -0.030568 0.040696
0.000197 -0.618918 0.217582
-0.700100 -0.216551 -0.098582
-0.558296 0.230104 0.189962
0.590120 -0.326561 -0.086516
-0.114763 0.362007 0.033667
-0.097311 -0.117632 -0.235996
-0.178908 0.482849 0.140739
0.463958 -0.360159 -0.101569
0.030734 0.169232 0.297712
0.011286 -0.049519 -0.229784
0.680533 -0.037570 0.098238
0.328865 -0.406773 0.446073
0.691348 0.041858 0.086439
0.321067 -0.090853 0.179694
0.689691 0.172457 0.172761
-0.197295 0.509974 -0.009310
0.125551 -0.659810 -0.105886
0.730368 0.446951 0.114032
-0.584180 0.112426 -0.355991
-0.378049 0.540454 -0.395612
0.421895 0.192822 0.147526
0.703574 0.486563 0.143491
0.636901 -0.287948 0.187312
-0.513903 0.575696 0.117712
0.687003 0.147162 0.172405
-0.105516 -0.637199 -0.147936
0.220304 0.038187 -0.210360
-0.008300 -0.123138 0.130857
0.426055 0.457096 0.305505
0.743048 0.511610 0.083346
-0.404793 0.374601 -0.371486
-0.535318 -0.365271 0.085494
-0.415710 -0.391521 -0.241443
-0.670441 -0.499191 0.086226
-0.541954 0.585480 -0.430428
0.323693 0.606725 0.060078
-0.310520 0.580060 0.154116
-0.749283 -0.433879 0.040246
0.759271 0.417792 -0.060419
0.361192 -0.674343 0.286736
-0.294636 0.151229 0.036353
-0.137569 -0.699922 -0.142436
0.313493 -0.051299 -0.179571
-0.536548 0.326431 0.176976
0.107990 -0.334839 0.397218
0.488532 0.487377 -0.243368
-0.559090 0.483687 -0.415740
-0.150070 0.552022 -0.008747
-0.640760 0.202429 -0.173280
-0.429470 0.272051 0.204018
0.106218 -0.140090 0.152686
-0.257741 0.431743 -0.005829
-0.503845 0.643588 -0.434135
-0.638374 0.112236 -0.239649
0.620633 -0.719076 -0.013927
-0.340882 0.144744 0.061545
0.505108 0.261671 0.149419
-0.527665 0.423719 0.161700
0.491603 -0.094334 -0.142751
0.520733 -0.721999 0.321284
0.266692 -0.012170 -0.194033
-0.310631 0.392865 0.043904
0.031858 -0.242631 0.158053
0.375052 0.199155 0.170556
0.084946 -0.004562 0.242791
-0.020701 0.677513 -0.008979
0.424271 0.101465 -0.187566
0.451750 -0.629630 0.293996
0.426004 -0.547066 -0.075671
-0.556464 -0.203001 0.054076
-0.347106 0.077465 0.055568
-0.624401 0.285609 -0.213010
0.440342 -0.451690 0.399421
0.388284 -0.357420 0.447393
0.261269 0.393269 0.222963
0.033563 0.444407 -0.311108
-0.591058 0.015952 0.205969
0.584834 -0.299079 0.259088
-0.063074 -0.409864 -0.180051
0.498595 0.148292 0.167855
0.476865 -0.212978 0.226440
0.113156 0.580385 -0.321364
-0.538788 -0.471954 0.103280
-0.260284 -0.229244 0.107504
0.661000 -0.390291 -0.004336
0.357122 -0.283518 0.218805
0.233162 -0.261712 0.194581
0.507090 -0.569474 -0.058424
-0.652305 -0.498718 -0.262067
-0.447256 0.074877 0.235013
0.387441 0.236051 0.261329
-0.331046 0.410370 0.165292
0.390008 0.051643 -0.184651
0.349843 -0.682937 0.286340
-0.631358 0.426303 -0.091889
-0.572256 0.573277 -0.326308
0.305428 -0.508556 -0.102211
-0.248837 -0.104791 0.087977
0.320737 0.182996 -0.218695
-0.388049 0.347694 0.197840
0.500391 -0.538205 -0.064912
0.592841 0.578234 0.109429
-0.609675 0.204236 -0.024795
0.506529 0.466272 0.114443
0.104427 0.006939 0.230685
0.207692 -0.115008 -0.186079
-0.092896 0.521338 0.216699
0.565978 -0.006698 -0.145550
-0.573203 0.541741 -0.339826
0.606077 -0.748718 0.082184
0.484155 -0.049646 -0.151672
-0.703769 -0.418444 -0.198143
-0.344213 0.497739 0.179257
0.634629 0.059625 0.205580
-0.631953 0.222140 -0.209510
-0.278948 0.210347 -0.322436
0.223131 0.191612 -0.236297
-0.179376 0.468022 0.134511
0.421866 -0.517343 0.461036
-0.133954 0.073848 0.076206
-0.001474 -0.098476 -0.223466
-0.226835 0.303153 0.021405
0.733795 0.267040 -0.164945
0.100565 0.297170 0.076502
-0.677701 -0.211265 -0.217271
0.353083 -0.636118 0.278818
-0.455951 -0.356571 0.097103
-0.091630 -0.615814 0.201883
0.562835 -0.177746 0.234574
0.657663 0.080626 0.205769
-0.491796 0.698412 -0.090374
0.519972 0.239489 -0.195515
0.742811 0.434530 0.039005
-0.541871 0.138353 0.010923
-0.352579 -0.384480 0.118978
-0.013112 0.601662 -0.345879
-0.678052 -0.085569 -0.140956
-0.523333 0.363092 -0.389081
-0.353640 0.114250 0.112875
-0.720903 -0.318733 -0.045939
0.736938 0.478134 0.096758
-0.531504 -0.395428 -0.259893
-0.698444 -0.359748 -0.192357
-0.598725 0.005616 0.011195
-0.315897 -0.300962 -0.240544
0.463391 -0.329982 -0.106856
-0.544603 0.184644 0.053184
0.468520 -0.183653 0.220015
-0.232414 0.609003 -0.032152
-0.008494 0.519056 -0.330900
-0.122454 0.052691 0.208180
-0.731716 -0.443306 -0.060872
-0.030879 0.169655 0.234247
0.443825 0.464678 0.104362
0.091634 -0.311717 0.179814
-0.520940 0.392854 0.047748
-0.349810 -0.340615 0.111886
-0.755832 -0.565414 -0.002004
-0.146358 0.283060 0.038153
0.392220 -0.128343 -0.153310
-0.354856 0.315964 0.208782
-0.277732 0.265739 0.019438
-0.128681 -0.377336 -0.196483
0.323633 -0.357001 0.225920
0.332894 -0.061047 0.176517
0.368113 -0.591209 -0.077635
0.005557 0.397695 0.227034
0.410929 0.536053 0.086646
0.022655 0.555123 0.019244
-0.652707 0.252753 -0.078518
-0.550490 0.565758 -0.428444
0.698940 -0.115331 -0.047903
-0.141818 -0.490663 -0.179150
0.647073 0.408697 -0.203645
-0.709442 -0.505248 -0.218678
-0.471797 -0.499144 0.119023
-0.662742 0.007902 -0.168888
-0.572211 -0.215295 -0.297616
0.030024 -0.382956 -0.169307
-0.632209 0.232736 -0.201842
-0.285062 0.015752 -0.289957
-0.718239 -0.605491 -0.230176
0.331692 0.362102 0.314221
-0.681762 -0.141570 -0.153929
0.186249 0.285872 0.303321
0.027240 0.503888 0.171976
-0.559970 -0.256272 -0.288542
-0.455971 -0.528025 0.126606
-0.322962 0.369935 0.097395
-0.098835 0.111853 0.286189
0.035026 -0.333886 0.178287
-0.394068 -0.104834 0.064000
0.576894 -0.271885 -0.098110
-0.236751 0.468907 -0.008758
0.619038 -0.512439 0.151569
0.076757 -0.249437 0.166639
-0.322017 0.068292 -0.305102
0.668545 -0.202404 0.065854
-0.138145 0.084562 0.228435
-0.364169 -0.009614 0.096817
-0.177791 0.570936 0.186810
0.106837 -0.300050 0.180317
-0.161924 0.480809 0.047168
-0.437861 -0.623063 0.144158
0.656585 -0.419102 0.002619
0.523158 0.339120 0.159104
-0.156577 0.493042 -0.350878
0.614876 -0.307374 -0.085730
0.391751 -0.131139 0.198300
0.585254 0.483698 -0.226761
0.032166 0.568689 0.151238
0.045028 0.520098 -0.322240
0.679848 -0.104114 0.062568
0.750863 0.505412 0.037176
0.293436 -0.349084 0.430295
-0.206021 -0.113947 -0.254583
-0.338200 -0.434171 0.129904
0.143074 -0.575734 -0.117462
-0.608923 -0.591616 0.112291
0.515830 0.039853 0.189364
0.331512 -0.579062 0.265437
0.663320 -0.204239 0.093185
0.037821 -0.042322 0.238984
-0.380050 -0.413332 -0.231800
0.428720 0.459835 0.144289
-0.172681 0.395171 0.054970
-0.723818 -0.382392 0.057311
0.062867 -0.041970 0.175376
-0.118319 -0.570427 0.189664
0.390740 -0.608844 -0.070863
-0.576120 0.645940 -0.262282
0.410518 -0.220325 -0.134459
0.389776 -0.524340 0.476365
-0.117728 -0.198866 -0.225388
0.507107 0.045725 -0.164294
-0.120757 -0.220705 0.129076
-0.374168 0.651952 -0.414159
0.603017 0.167670 0.181765
0.576274 -0.371758 -0.081025
0.712364 0.221246 -0.160603
0.449960 -0.600696 0.288721
0.250517 0.261122 0.318193
0.573671 0.400509 0.136848
0.709604 0.344272 0.166172
-0.705534 -0.452852 -0.208913
-0.099246 -0.424085 -0.183577
0.462408 -0.507926 -0.076395
0.051614 0.292734 0.069182
0.427772 -0.034286 0.187580
-0.236828 -0.612275 0.177295
0.035072 0.530834 0.145330
0.699806 -0.112855 -0.051148
0.272985 -0.619922 0.262803
0.587189 0.131287 -0.165794
-0.558163 0.185966 0.127711
0.154974 0.057390 0.267885
-0.533953 0.380817 0.111390
0.548600 0.281288 -0.197981
0.768756 0.403618 -0.120394
-0.452806 -0.015976 -0.312198
0.143253 -0.642338 -0.105970
-0.055547 -0.462918 -0.169677
0.415408 0.475318 0.182498
0.370855 0.163890 0.144076
0.668662 0.537551 -0.222255
-0.366388 0.082118 -0.314809
0.595243 -0.091270 0.225044
0.149415 -0.130861 -0.192975
-0.027251 -0.428372 0.390981
0.336520 0.447229 0.300368
0.279493 -0.313716 0.211182
-0.185668 0.430419 0.146466
-0.371459 -0.384875 -0.235279
-0.077904 -0.277687 -0.205247
0.050372 -0.496696 0.415558
-0.411876 0.324209 -0.363983
-0.577159 0.524971 -0.328239
-0.057162 0.212927 -0.286254
-0.061690 0.493379 -0.335266
0.369520 0.289237 -0.228923
-0.693707 -0.584133 0.097002
0.768430 0.404546 -0.182890
-0.415514 0.247961 -0.351462
-0.292104 0.271953 0.015996
-0.157373 0.176263 -0.296493
0.632075 -0.564756 0.049693
-0.141638 0.176197 0.057323
0.573605 -0.728619 0.270679
-0.413380 0.670880 -0.423892
0.370738 -0.135684 0.195612
0.122678 -0.175722 0.161537
0.263248 0.357192 0.097754
0.180327 0.390085 0.073684
-0.763303 -0.562015 0.040638
-0.699080 -0.349945 -0.183096
0.713920 -0.041271 -0.085530
-0.343292 -0.026108 -0.292369
0.726051 0.110370 -0.061736
-0.263343 0.578858 -0.032072
-0.407331 -0.548066 0.138088
0.430067 -0.042399 -0.161851
0.201621 0.440646 0.068500
0.198184 -0.434948 -0.132589
-0.237586 -0.459694 0.281873
-0.258355 -0.129905 -0.260480
0.031780 0.445073 -0.311517
0.021894 -0.197139 -0.202628
-0.599294 0.270800 -0.358322
0.283355 -0.212554 0.194410
-0.004622 -0.115237 -0.221102
0.079407 -0.280158 0.172364
-0.606874 0.600536 -0.121901
-0.526508 -0.035660 -0.320982
-0.596669 0.287478 -0.362724
0.700588 -0.094503 -0.044533
0.589273 0.060884 -0.153333
0.428721 0.266542 0.256058
-0.745033 -0.376769 0.050937
-0.702370 -0.232917 0.035129
-0.431437 0.518859 -0.400712
0.087802 0.266705 0.290361
0.220707 0.567195 0.049873
-0.549896 0.112397 0.000882
-0.205439 0.020429 -0.277613
-0.004911 -0.384499 0.387120
-0.034496 0.307000 -0.298700
0.168875 -0.505946 0.436719
0.426380 0.258923 0.236748
0.609704 0.571507 -0.235548
0.640453 -0.442483 0.076512
0.689644 0.438874 -0.201808
-0.321903 0.259405 0.026203
-0.695838 -0.119860 -0.064523
0.201356 -0.591666 0.246112
-0.217164 0.362037 -0.338338
0.595257 0.593002 0.107286
-0.231145 0.602036 -0.030743
0.552796 -0.290828 0.252377
-0.579468 0.646372 -0.243818
-0.447401 0.631102 -0.422665
-0.523931 0.383893 -0.041553
-0.514029 -0.613551 -0.219469
0.537382 -0.657299 -0.038307
-0.725175 -0.328391 -0.028422
-0.332022 0.235305 0.066971
0.502110 0.380117 -0.222666
0.275447 -0.677926 0.273192
0.152119 0.280784 0.130843
0.428740 0.002879 0.181344
-0.565680 0.672980 -0.098198
-0.557910 -0.424508 -0.259249
-0.574471 -0.540598 0.109201
-0.176453 0.484836 0.128565
0.654335 -0.325826 0.070074
0.504068 0.357483 0.314966
0.586651 0.555007 0.112404
-0.431699 -0.190522 0.072532
0.138719 -0.711050 -0.094893
-0.713377 -0.333179 -0.095419
0.306725 0.174581 0.265480
-0.702141 -0.475288 -0.240646
0.029257 0.413040 0.107224
0.028963 0.665792 0.001240
0.312389 0.355431 0.312181
0.381319 0.240239 0.291105
-0.723927 -0.606776 -0.200001
