-0.199403 0.396202 -0.244764
0.722189 0.156449 0.076303
-0.524307 0.438620 -0.266579
-0.656142 0.386345 -0.058929
-0.514005 0.389457 -0.266248
-0.774963 -0.031824 0.055225
-0.303348 -0.169178 -0.256106
-0.334649 0.269872 0.087495
0.337395 -0.274416 0.272759
0.596179 0.363417 -0.097998
0.119703 0.081576 -0.225396
0.082060 0.077318 -0.227992
0.314280 -0.531302 -0.216758
-0.661679 -0.015118 -0.279356
-0.393742 -0.023160 0.208780
-0.079416 -0.752981 -0.245249
-0.130104 0.131844 0.298769
0.042799 0.655723 -0.226309
0.449595 0.378234 0.141739
0.864718 -0.191642 -0.176699
-0.938172 0.193161 -0.094465
0.033892 0.631434 0.320782
-0.050593 0.020069 -0.237460
0.261396 0.386283 0.334433
0.312374 -0.479519 0.125928
0.031606 -0.478886 -0.235620
-0.212000 -0.894065 -0.056531
-0.582566 -0.346658 -0.008046
-0.351595 -0.467209 0.247970
0.152188 -0.721916 -0.165884
-0.085175 0.343087 -0.237383
0.006375 -0.101462 0.173081
-0.173115 -0.134949 0.095450
0.239149 0.003088 -0.217850
0.220918 0.326281 0.331224
-0.690963 0.140030 0.062243
-0.354319 -0.681321 -0.060888
-0.722237 -0.121910 -0.158568
-0.283408 -0.191919 0.117067
0.033804 -0.038695 0.278946
0.232170 -0.449071 0.326148
-0.029450 -0.338683 -0.238723
-0.433637 0.347517 -0.261088
-0.034903 -0.593729 0.306864
0.606845 -0.052593 0.149205
-0.830539 0.065557 -0.290252
-0.195817 0.487272 0.098591
-0.333368 -0.283658 0.288867
0.599721 0.364021 -0.151937
0.562141 0.078633 0.147149
0.118576 -0.469309 0.318257
0.029248 -0.621958 0.299217
-0.819376 0.024353 -0.171209
0.424048 0.595135 0.131199
-0.508703 -0.183003 0.072225
-0.215521 0.547142 -0.244725
-0.641378 -0.166116 -0.279111
0.834854 -0.128721 0.164165
0.292003 -0.377321 0.330765
-0.635798 -0.258083 -0.092143
-0.135281 0.452983 0.102457
-0.195050 -0.901447 -0.220522
0.193757 0.353008 0.329575
-0.703781 -0.141834 -0.228229
0.014419 -0.191226 -0.234624
0.053563 0.325585 0.114362
-0.031265 0.774565 -0.230459
-0.135311 0.615473 0.103679
0.189806 0.329679 0.123675
-0.391241 -0.197170 -0.262304
0.229558 0.898459 0.009866
0.636224 0.298631 -0.051647
-0.126085 -0.885368 -0.249425
0.323982 -0.342594 -0.214675
-0.342968 -0.000888 0.290343
-0.048612 0.119101 0.138852
-0.672173 -0.212376 -0.013853
0.558966 -0.240917 0.144525
-0.346658 0.431493 -0.254530
0.033363 -0.064363 0.208903
0.051154 0.005320 0.149970
-0.307080 -0.740775 -0.161693
0.671606 -0.108315 -0.189227
-0.184059 -0.144001 0.094636
-0.193382 -0.627373 0.295814
0.488650 0.528883 -0.144611
0.184027 0.156088 -0.220452
-0.521434 -0.411687 -0.247626
-0.466247 0.199468 0.241024
0.099631 -0.403653 0.317461
0.502362 0.509696 -0.156187
-0.178655 -0.437599 -0.249633
0.271846 0.084544 -0.215008
0.100185 0.445746 0.323899
0.462281 0.532511 0.143765
-0.088241 0.287015 -0.238014
0.289359 0.383898 -0.211560
0.329218 0.347484 -0.209119
0.622248 -0.288799 0.148475
-0.491068 -0.032249 0.074563
-0.645098 -0.076510 -0.278689
0.261282 0.782179 0.131953
-0.249833 -0.817626 -0.239879
0.411136 0.322947 0.344157
0.452419 0.572991 -0.053622
0.439977 0.594686 -0.082366
0.360349 0.706457 -0.018289
-0.571047 -0.084375 0.068721
0.274464 0.379909 0.335276
-0.853388 0.051236 0.047265
0.540749 0.167181 0.146359
-0.213516 -0.664553 0.294162
0.240877 0.333726 0.332639
0.470670 0.271771 0.204426
0.094345 0.387815 0.117609
0.100924 -0.266673 -0.229299
0.696660 -0.161764 -0.187923
0.668894 -0.197515 -0.190084
0.027636 0.435889 0.113427
0.365865 0.706808 -0.096874
0.842378 -0.172273 -0.178075
-0.230158 0.671519 -0.039197
0.423486 0.122611 0.138034
-0.579840 0.039327 0.274509
-0.416614 -0.376825 0.252936
0.178322 0.888555 -0.215322
0.667367 -0.226652 0.152017
0.004347 0.592712 0.257796
-0.678383 -0.158368 0.060851
-0.216796 -0.350380 0.296306
-0.785860 0.006565 0.054772
0.569342 0.350832 0.149690
0.566228 0.391375 0.055139
0.270737 0.772485 -0.209901
0.074674 -0.555099 -0.233260
0.169792 -0.333905 -0.225114
0.144266 -0.640361 -0.229162
0.359161 0.636707 0.137525
-0.187375 -0.154922 -0.248097
-0.240804 -0.265459 0.208661
-0.033303 -0.123551 -0.237365
-0.432222 -0.341837 0.281694
-0.470009 -0.008549 0.230515
0.165656 0.714966 0.311921
-0.359822 -0.670918 -0.080992
0.281449 0.172483 0.321311
0.623386 -0.039782 0.150429
-0.468754 0.488978 -0.262415
0.060055 -0.783088 -0.156818
-0.540022 0.005707 0.210361
0.592409 0.117733 0.149505
-0.062531 0.240880 -0.236610
0.655796 0.250688 0.120154
0.674656 0.245079 -0.086191
-0.569655 -0.207516 0.067888
-0.480138 -0.104017 -0.267658
-0.604182 -0.282862 0.064969
0.543514 -0.305428 -0.199439
0.217916 -0.336366 -0.221854
0.291896 -0.377233 0.330758
-0.171666 -0.833082 0.090288
-0.471173 -0.005820 0.111514
0.056410 0.527133 0.116075
0.385672 -0.367664 0.337219
0.040863 0.205194 -0.229835
-0.623982 -0.151080 0.064613
0.560244 -0.195442 0.144954
-0.618602 0.341938 -0.273731
-0.242318 -0.256012 0.142789
0.274369 0.172030 0.128248
0.285197 -0.026251 0.127491
-0.251302 -0.114629 0.090276
-0.196196 -0.918398 -0.049568
0.648207 -0.037598 0.152136
0.110633 0.310243 -0.224291
-0.458890 -0.525044 -0.063717
0.540153 0.155983 0.146234
0.904396 -0.108055 -0.173367
0.632899 0.047544 -0.190690
0.281171 0.819303 0.029795
-0.449003 -0.549256 0.023010
0.355685 0.138110 -0.208893
-0.313518 -0.748533 -0.002638
-0.932386 0.197419 -0.177018
0.043215 -0.373295 -0.234034
0.258691 -0.351025 -0.219186
0.353782 0.721110 -0.062797
-0.341467 -0.372049 0.287649
-0.137478 0.523235 -0.239588
-0.356538 0.546630 0.088089
-0.354097 0.511760 -0.254432
-0.595049 0.198945 -0.273204
0.316319 0.780219 -0.092418
-0.468457 0.090141 -0.265400
0.422245 0.180601 0.343842
0.348993 0.710351 0.101212
-0.081637 -0.085484 0.240281
0.018305 0.576003 0.220153
0.486248 0.423109 0.144574
-0.446152 0.195370 0.247100
-0.546905 0.295406 0.073227
0.123694 0.298167 -0.223492
-0.640874 -0.246436 -0.129493
0.224169 0.110938 0.124368
0.310648 0.018523 0.129563
0.357624 0.121887 0.338997
-0.798495 0.269772 -0.286530
0.082844 0.761645 0.119642
-0.644933 0.026645 0.200340
0.270745 0.194019 0.270269
-0.395598 -0.601427 0.076778
0.844394 -0.256421 -0.078492
0.028674 0.723913 -0.226757
0.518986 0.278283 0.145713
-0.183442 -0.061262 -0.247124
-0.304474 -0.766515 0.038525
0.698281 -0.302480 -0.188873
-0.203951 -0.219594 0.092711
0.164427 -0.089054 -0.223634
-0.385640 -0.022676 0.109454
0.904765 -0.133993 0.168888
-0.342016 -0.688185 -0.166121
-0.079813 -0.128012 0.101858
0.422600 0.577940 0.141404
-0.493159 0.205236 0.219567
0.567089 -0.171848 0.145599
0.404465 -0.502016 -0.210393
0.049008 -0.012458 0.129101
0.574135 0.386397 -0.007307
-0.501689 0.205653 0.279960
0.254010 0.873694 -0.097383
0.310550 -0.436514 -0.216298
0.346363 0.667277 0.136884
-0.338136 -0.447970 -0.260576
-0.939290 0.189408 -0.044796
-0.849933 0.063870 -0.115701
0.124249 0.835194 -0.219408
-0.697803 0.343269 0.063308
-0.265558 -0.278016 0.293529
-0.342578 -0.708017 0.023260
0.034780 -0.069341 0.172772
-0.858102 0.202487 -0.291098
-0.658583 0.136259 0.064420
-0.131790 -0.075313 0.227797
0.237107 0.618169 0.222393
0.143894 0.457939 0.326968
0.033213 0.553222 0.225148
0.654574 -0.335662 0.150324
-0.476774 0.060415 0.281690
-0.083757 -0.421149 -0.243044
-0.169307 -0.511760 0.198677
-0.320478 -0.050147 -0.256376
0.813770 -0.214851 -0.180345
0.237398 -0.599560 0.119916
-0.292987 -0.278406 0.291657
-0.483874 0.262410 -0.265152
0.483812 -0.438636 -0.204510
-0.190117 -0.172551 -0.248417
0.024655 -0.469549 -0.236023
-0.259022 0.182272 -0.250438
0.663823 -0.044288 -0.189275
0.305007 -0.552425 0.124877
0.045758 -0.027533 0.132857
0.170458 -0.563266 -0.226796
-0.817207 0.056851 -0.289409
-0.084024 -0.004061 0.307960
-0.193818 0.158978 0.096254
0.464462 -0.306832 -0.204835
0.275753 0.646279 -0.210510
0.213401 0.915313 0.076244
-0.361045 -0.309078 0.286790
0.138177 0.140139 -0.223696
0.787355 0.067522 0.000543
-0.437183 -0.347364 0.264098
0.457577 0.575166 -0.144033
0.006853 0.097829 -0.232961
-0.204521 0.426205 -0.244887
-0.194327 0.204609 0.096563
-0.190386 -0.842307 -0.253482
0.160354 0.175295 -0.221920
0.136440 0.652794 -0.219951
-0.270308 -0.355618 0.292621
-0.108537 -0.688951 0.301130
-0.632588 0.375999 0.067997
0.233085 0.499111 -0.214525
0.628376 0.220646 0.152731
-0.432957 -0.185780 -0.265060
-0.261703 -0.601197 0.191751
-0.931478 0.196684 -0.212348
-0.146252 -0.911554 0.087771
0.581347 -0.016917 -0.194688
-0.211750 -0.905441 0.044274
-0.336155 -0.570672 0.081060
-0.560942 -0.185521 0.068648
0.558942 0.187730 -0.194672
0.438777 0.587414 0.000650
0.153770 0.621646 0.328875
0.048372 0.532598 0.206964
-0.083673 0.116262 -0.238989
0.301947 0.149500 0.251768
-0.328425 -0.002195 -0.256556
0.125630 0.156676 0.117999
0.771104 0.091040 0.007152
0.214211 0.873069 0.129431
0.849114 -0.156488 0.164927
0.033323 -0.073541 0.182097
0.259481 -0.161252 0.124722
0.339007 0.103195 0.169572
0.371728 0.682566 0.045105
-0.658547 -0.216062 -0.166276
-0.336027 0.379921 -0.254195
0.277267 0.823720 0.042675
-0.220828 -0.807172 0.087134
0.262440 0.589755 -0.211843
0.305533 0.481745 -0.209721
0.350293 0.133665 0.338586
-0.430505 -0.270745 -0.265533
0.017967 -0.134192 -0.233952
0.163374 -0.642433 0.114550
0.322653 -0.233838 -0.213946
-0.505519 -0.459229 -0.029523
0.671448 0.225918 0.133209
-0.529719 -0.240181 -0.272062
-0.284156 -0.006618 0.294307
0.315843 -0.155388 0.128606
-0.478451 0.282133 -0.264634
-0.187851 -0.063957 0.214446
-0.573712 0.443660 0.001067
-0.719098 0.236870 -0.281369
0.107225 0.452529 0.136320
-0.553839 0.103092 0.276761
0.197196 -0.321484 -0.223153
0.210572 0.877295 0.129215
-0.613272 -0.279645 -0.202417
-0.747947 -0.106022 0.047205
-0.306570 0.614397 -0.199991
-0.131502 -0.073146 -0.243675
0.027541 -0.066762 0.289127
0.252160 0.097237 0.126171
-0.355465 -0.213875 0.082432
-0.696394 -0.125186 -0.282551
0.393860 -0.213231 -0.208940
-0.361651 -0.026548 -0.259003
-0.204824 -0.895003 -0.146001
-0.559259 0.066340 0.276115
0.305824 -0.399567 0.331539
-0.304902 0.341772 0.090063
0.831335 -0.188416 0.163476
-0.022273 -0.069610 0.311673
0.397970 -0.186254 0.133969
0.942900 -0.160714 -0.033901
0.084189 -0.675520 -0.233519
-0.095140 0.296493 0.104012
0.506016 -0.280305 0.140621
0.089373 0.231523 -0.226332
-0.920800 0.168896 -0.109541
-0.305235 -0.715287 0.082076
-0.181652 0.170110 0.097167
-0.610529 0.133363 -0.274753
-0.262763 -0.539288 -0.256129
0.292035 0.804456 0.017371
-0.249330 0.648931 -0.246261
-0.794695 -0.006029 -0.230123
0.042216 0.260017 -0.229330
-0.614651 0.006204 0.066433
-0.606662 0.112719 -0.274645
-0.222284 -0.857578 -0.250302
0.415947 0.227048 -0.204118
0.221006 -0.127836 0.122353
0.249542 0.352940 -0.214506
-0.087547 0.368937 -0.237349
-0.312028 -0.037186 0.107882
-0.418550 0.421718 0.082923
0.804531 0.052570 -0.097177
0.035829 0.548274 0.234733
-0.274298 -0.147349 -0.253962
0.285289 0.547596 0.210563
-0.557717 0.270522 0.072303
-0.166643 -0.571440 -0.249823
0.924175 -0.122360 -0.129427
0.628947 0.313050 -0.084324
0.524548 -0.420440 -0.201598
0.101661 0.703814 0.325944
0.499078 0.215289 0.333705
0.145977 0.138643 -0.223176
-0.162792 0.648228 -0.240371
-0.206952 -0.445043 -0.251617
-0.428411 -0.016959 0.239633
-0.387449 -0.632635 -0.054226
0.253977 -0.397762 -0.219860
-0.168742 -0.455291 0.093334
0.513957 -0.174222 -0.200464
0.683614 -0.174936 0.153514
-0.167385 -0.233556 -0.247328
0.677897 -0.221244 -0.189650
-0.252368 -0.835898 -0.037824
0.289096 -0.501168 -0.218246
-0.372744 0.574805 0.087197
-0.260134 -0.240956 0.248315
0.205448 -0.585279 0.117847
-0.158267 -0.449198 -0.248332
-0.084340 0.496610 0.106256
0.318129 -0.246916 0.284078
0.867515 -0.065688 0.125629
-0.012289 -0.652860 0.215748
-0.193984 0.690137 -0.185029
0.662298 0.227898 0.155097
0.308262 0.511080 0.231189
0.699887 -0.133935 0.154931
-0.331830 -0.701595 -0.182456
0.520478 0.203158 0.152414
0.567249 0.136650 -0.194491
0.106365 -0.594189 -0.231396
0.264160 -0.294770 0.329490
-0.665686 -0.131917 -0.280509
0.721795 -0.203305 -0.186524
-0.543797 -0.407542 0.019990
0.307393 0.565257 -0.208965
-0.056011 -0.693634 -0.243207
0.464339 -0.248186 0.138023
0.613572 -0.348464 0.147435
0.356744 0.148423 -0.208743
-0.018264 -0.207612 0.105452
-0.216749 -0.028867 -0.249149
-0.341760 -0.356563 0.287746
0.193951 0.944616 0.073557
0.517244 0.123270 0.144426
0.221898 0.913970 -0.027569
0.106548 0.430789 -0.223661
-0.400649 -0.164459 -0.262699
-0.534161 0.311148 0.074214
-0.697082 0.206045 -0.280102
-0.022777 -0.537655 0.308112
0.585670 0.381672 -0.121646
0.196467 -0.536144 -0.224820
0.744982 -0.280814 -0.185528
-0.455354 -0.540295 0.027685
-0.328435 0.036905 0.291618
-0.008212 0.237925 -0.232932
0.188221 0.315936 0.280961
0.411936 0.128256 0.339349
-0.336471 -0.541800 0.081256
0.039069 0.494582 -0.227777
0.601374 -0.179102 -0.194545
0.429951 0.619027 -0.168374
0.781766 0.089376 -0.123302
0.057434 0.040515 0.160821
-0.334012 -0.402207 -0.259950
0.248443 -0.056305 -0.217664
-0.412240 -0.017933 0.133867
-0.529515 0.004145 0.185874
0.373138 -0.574769 -0.175861
0.061687 0.070848 0.187572
0.289189 -0.104158 -0.215249
-0.502747 0.427763 -0.265192
0.884361 -0.109393 -0.174742
0.405567 0.642552 -0.050700
-0.772118 -0.055104 -0.089009
-0.458427 -0.520449 -0.112144
0.313485 0.092369 -0.212113
0.012151 0.665556 0.319557
0.227895 0.268651 0.172041
0.374202 0.684285 -0.004443
-0.404212 -0.456981 -0.265145
-0.445935 -0.323211 0.162404
-0.233196 -0.016374 -0.250175
0.252977 0.767633 0.131278
-0.032782 0.436645 0.109317
-0.291324 -0.426408 0.262686
-0.885222 0.118825 -0.136971
-0.516822 -0.086357 0.072401
0.659786 0.261384 -0.032378
-0.558587 0.148435 -0.271101
0.120285 0.604857 -0.221413
0.000591 -0.133949 0.107291
0.061401 0.709308 0.323242
-0.268213 -0.096921 -0.253167
-0.225131 -0.608292 -0.254085
-0.581360 -0.320852 -0.260968
-0.010471 -0.359463 -0.237587
-0.029953 -0.538678 -0.240264
-0.275642 0.473427 0.093049
-0.411801 -0.451869 -0.265624
-0.602321 0.393961 -0.272230
0.202731 0.938401 0.010511
0.178876 0.902764 0.127248
0.227297 0.033734 -0.218426
0.165635 0.724759 0.222479
-0.587548 0.050212 0.274066
-0.414928 -0.378711 0.247176
-0.572011 -0.359461 -0.034979
0.007122 0.299464 0.111002
-0.310861 0.171320 0.119480
0.616857 0.172235 0.151582
0.460513 0.134988 -0.201775
0.856272 -0.030393 -0.044117
0.144051 -0.601092 0.113545
0.377815 0.412194 0.186739
0.234074 0.027752 -0.218010
0.400600 0.647909 -0.031913
0.054098 -0.113216 -0.231333
-0.155210 0.352961 -0.242079
-0.003255 -0.063281 -0.234864
-0.243261 -0.522777 -0.254676
0.339032 0.238940 0.338612
0.388499 -0.388298 0.135639
0.362364 0.687112 0.131415
0.260503 0.846735 0.060895
0.055736 -0.175075 0.110738
0.032494 0.832673 0.116747
0.298287 0.407236 -0.210776
0.101839 0.460670 0.135322
-0.594308 -0.311573 -0.169042
0.210362 0.288535 0.330220
-0.741311 -0.105043 -0.052450
-0.448931 -0.522285 -0.225091
-0.074664 -0.568386 0.304346
0.278175 0.578189 -0.210858
-0.722788 -0.124834 -0.124239
-0.402155 -0.006833 -0.261614
-0.104199 0.760747 0.095883
0.409781 0.582593 -0.201859
-0.448457 -0.552170 0.042247
-0.190387 0.524092 0.099239
-0.219082 -0.897106 0.068108
0.517909 0.199613 0.219997
0.410181 0.128881 0.342630
0.066851 0.510377 0.158024
-0.513408 -0.052034 0.072892
0.460587 -0.055209 -0.203203
0.581261 -0.066749 0.147356
0.180800 0.322629 0.321056
-0.741774 0.190423 -0.283264
-0.240988 -0.834423 -0.206845
0.194826 0.270043 0.123567
0.287974 0.719419 -0.209126
0.651410 -0.026024 -0.189983
0.187461 0.943942 -0.208251
-0.340839 0.445250 0.088395
0.544401 -0.461307 -0.199290
-0.478041 -0.267644 -0.268748
0.075759 -0.737671 -0.234562
-0.381140 -0.007906 -0.260190
-0.377030 -0.352263 -0.262505
-0.307129 -0.040477 0.218518
0.359016 0.047056 0.133073
-0.526792 0.091534 0.278517
-0.397672 0.381827 -0.258380
0.293623 0.426643 0.336933
-0.673850 0.291139 -0.277878
0.154548 -0.018233 -0.223774
0.844319 -0.007069 -0.094472
-0.365981 0.059581 0.289231
-0.148056 0.065779 -0.243756
0.570152 0.377967 0.124362
0.084892 0.482710 0.164982
0.771609 -0.127766 0.159864
-0.590368 -0.318712 -0.157480
-0.220683 -0.031285 -0.249435
0.203880 0.426044 -0.217066
0.305725 0.749348 0.134734
-0.217282 -0.675954 0.269658
0.271351 0.646491 -0.210808
0.148678 -0.174503 0.117074
-0.350236 -0.676358 -0.162162
0.306176 -0.147560 0.128007
-0.180995 -0.585944 -0.250910
0.453831 -0.290558 -0.205437
-0.179528 -0.530506 0.297487
-0.205473 -0.437464 -0.251459
-0.614110 0.152343 0.095812
-0.184887 0.301455 0.097936
-0.399571 0.138200 -0.260345
-0.666357 0.266458 -0.277553
0.025092 -0.070485 0.314759
0.835148 -0.105078 -0.178062
-0.152390 0.095578 0.304054
0.426646 -0.409776 0.134238
0.095877 0.152345 0.115940
-0.734340 -0.085535 -0.284837
0.438566 -0.353774 0.135472
-0.211042 -0.670878 -0.253597
-0.324014 -0.268452 0.289619
0.181390 -0.025692 0.120424
-0.016118 0.109981 0.267475
-0.176668 0.565167 0.100483
0.489204 0.512490 -0.001984
0.237183 0.216608 0.126050
-0.206246 -0.912103 0.030101
-0.915201 0.154874 -0.057582
0.094967 0.288444 -0.225522
-0.311183 -0.723997 -0.259344
0.207871 -0.638165 0.117613
0.082872 0.056558 -0.228093
0.211122 0.741227 0.128228
-0.216727 0.330619 0.095986
-0.512789 -0.386698 -0.272013
-0.278117 -0.028687 -0.253328
0.294524 0.075518 0.128894
-0.520510 -0.024716 0.072614
-0.450006 0.187181 -0.263412
0.058413 -0.430517 -0.233429
0.469608 0.554341 -0.117635
-0.098825 -0.087985 -0.241560
0.228041 0.010322 -0.218552
0.169031 0.272137 -0.220599
-0.832878 0.113032 -0.290054
0.714326 -0.264948 -0.187497
-0.080905 -0.230984 -0.241417
0.550332 -0.320610 0.143336
-0.176679 0.637895 0.101030
0.130734 -0.027073 0.116962
0.301570 -0.434606 0.330985
-0.605115 0.308814 0.069363
-0.783189 -0.030645 -0.161822
0.798628 -0.088446 -0.180424
0.593424 0.360616 -0.034696
-0.424051 -0.558109 -0.236870
0.267015 0.721410 0.131886
-0.388861 -0.611867 -0.225215
0.461602 0.222914 -0.201039
0.474131 0.258843 0.275564
0.385954 -0.344479 0.251116
0.450375 -0.341837 0.136367
-0.400039 -0.410063 0.077917
-0.573962 -0.358495 -0.017177
0.353078 0.705441 0.090383
0.850212 -0.038834 -0.176536
-0.195230 0.249525 0.096840
-0.450141 0.407565 0.080665
0.584161 -0.198141 -0.195862
0.464597 0.513297 -0.198647
-0.013427 0.632871 0.132751
0.235301 -0.570855 -0.222436
-0.235580 -0.838598 -0.242508
-0.435331 -0.569572 0.022305
-0.356550 0.339828 0.086530
0.498246 -0.482938 0.042756
-0.094882 0.635351 -0.235842
-0.669841 -0.216149 -0.011146
-0.304626 0.326505 -0.252458
0.828545 -0.004031 0.093257
0.096868 -0.603886 0.110309
0.390072 -0.014683 0.134723
0.641996 -0.386192 0.062958
-0.022632 -0.573499 0.307852
0.245481 0.221169 -0.215775
-0.723429 -0.092620 0.058278
-0.359235 -0.418686 -0.261793
-0.033883 -0.118054 0.105062
-0.876875 0.090465 0.008802
-0.127045 -0.034401 -0.243079
-0.300380 -0.612994 -0.259247
-0.429292 -0.547540 -0.262070
-0.375034 -0.646867 -0.093485
0.194867 0.036635 -0.220614
0.054266 0.043957 0.218655
0.290523 0.268359 -0.212351
0.534258 -0.381393 0.141783
0.287983 0.214973 -0.212926
0.499142 0.326487 0.144724
-0.292542 -0.043588 0.229433
-0.074542 0.201718 0.104702
0.459771 0.415641 -0.199711
-0.200835 0.552647 0.098742
0.483167 -0.497498 -0.075596
-0.191061 -0.890832 0.088532
0.118142 0.047464 -0.225759
0.212056 -0.420955 0.324990
-0.313531 -0.653018 -0.260445
0.168622 0.348679 0.248797
0.232381 0.273913 -0.216270
-0.051666 -0.521340 -0.241613
0.705052 0.194998 -0.042707
-0.624417 -0.282195 -0.026764
0.902175 -0.167605 0.168458
0.202389 -0.680101 0.052696
0.373474 0.196949 0.340642
-0.639444 0.029097 0.108001
0.232867 -0.353545 0.326916
-0.109538 -0.392379 0.097841
0.372100 0.667589 -0.203786
0.556050 0.398217 0.131536
0.380203 0.579626 0.138529
0.228338 0.271008 0.144383
-0.534676 0.003975 0.242530
0.307592 0.151223 -0.212071
0.168937 -0.156026 0.118593
0.266321 0.096390 0.127130
0.593660 0.066868 -0.193218
-0.080293 0.530145 -0.235641
-0.458649 -0.301487 0.137114
-0.937355 0.180029 0.014679
0.773865 -0.164752 0.159739
-0.183656 0.193441 -0.245219
-0.387770 -0.645846 0.071214
0.200404 0.918398 0.128832
0.309970 0.150522 0.132764
0.756801 -0.082758 -0.183231
0.217812 0.053247 0.123500
0.928031 -0.157782 -0.172131
-0.232554 0.475707 -0.246424
-0.451654 0.199938 0.081329
-0.171591 -0.166188 -0.247107
-0.347692 0.582530 0.088962
-0.752283 0.025540 0.057203
0.067400 -0.354076 0.189113
-0.300203 -0.775203 0.059762
-0.135303 -0.338140 -0.245930
0.067159 -0.060128 -0.230043
-0.562242 -0.382773 0.045113
-0.315699 0.283532 -0.253536
-0.051740 0.709059 0.110078
-0.402122 -0.622186 0.050553
-0.648541 0.356256 0.066762
-0.367199 0.075369 0.289267
0.540923 -0.232687 0.143358
-0.629970 -0.277499 0.006093
-0.921993 0.154761 0.036271
0.836173 -0.010822 0.051235
-0.643637 0.247153 -0.276151
0.171691 -0.014726 0.119846
0.053801 0.095127 0.317003
-0.278621 -0.137456 0.088243
0.438352 -0.414340 -0.207424
-0.121313 0.151621 0.101138
0.691486 -0.002058 0.155352
-0.710081 0.293112 0.062094
-0.144582 -0.303576 -0.246302
0.535350 -0.255930 -0.199622
0.621012 -0.305698 -0.194161
-0.066218 0.206279 0.105303
0.710933 -0.161032 0.155480
0.020556 0.566003 0.281017
-0.437380 -0.130608 -0.264946
-0.292153 0.424283 0.091554
0.073735 -0.544629 -0.233245
0.139266 0.395256 0.223200
0.608350 0.016114 -0.192599
0.036044 0.171307 -0.230419
-0.654663 -0.040541 -0.279070
0.149233 -0.719327 -0.229418
-0.011171 -0.246894 -0.236786
-0.359957 -0.456469 0.208410
-0.219900 -0.867194 -0.194777
0.346308 -0.055889 -0.210994
-0.310836 0.569512 0.091375
0.335192 -0.255858 0.132838
0.125966 0.424548 0.325495
0.188122 0.428936 -0.218117
-0.387233 0.047542 0.287693
-0.577998 0.223970 0.125574
0.596442 0.364328 -0.109949
-0.445301 0.196338 0.193016
-0.071865 -0.406824 0.100299
-0.091955 -0.262917 -0.242410
0.191450 0.460696 -0.217651
-0.633798 0.238844 0.066882
0.340834 0.092085 0.246405
-0.548350 -0.369656 -0.264911
-0.602553 0.204649 0.078549
0.076021 -0.624750 -0.233693
0.191922 0.398281 0.329791
0.147988 -0.495124 -0.227814
0.266551 0.295664 -0.213778
-0.735227 -0.119684 -0.001445
0.636419 -0.305976 -0.193114
-0.484211 -0.465784 -0.260643
0.324767 0.477719 0.311297
-0.495545 0.494640 -0.030844
0.510208 0.216338 0.171999
0.086632 0.071901 0.114704
0.296516 0.812054 -0.113491
0.021011 0.761238 0.115427
0.256061 0.857789 0.020314
0.239530 0.235320 0.318424
-0.648578 0.395895 0.059599
0.069143 0.343934 0.115562
0.752037 0.078070 0.160081
-0.301401 0.524398 -0.250747
-0.190978 -0.456701 -0.250617
-0.194161 -0.331189 0.173496
-0.472743 -0.008236 0.241333
-0.112316 0.500140 0.104377
0.881295 -0.073174 -0.174678
-0.472989 -0.515404 0.040613
-0.273571 -0.184376 0.088234
-0.540777 0.296124 0.073650
0.060008 0.507082 0.281736
-0.011297 0.238748 0.109289
-0.291991 0.001529 -0.254046
-0.384785 -0.616212 -0.241093
-0.229916 -0.284390 -0.251971
-0.488910 -0.176926 -0.268805
-0.114515 -0.598206 -0.246474
-0.357490 -0.043749 0.083576
-0.009580 -0.731662 0.102095
-0.244406 0.636894 0.096408
0.587963 0.182534 0.149691
-0.515791 -0.098711 0.072378
-0.835997 0.058141 -0.253652
0.079501 0.489891 -0.225058
0.352128 -0.173681 0.130940
-0.546589 -0.346194 0.068415
0.337166 -0.259011 0.134757
0.102120 0.738719 0.217276
-0.144399 0.475114 0.102002
0.220917 0.905427 0.064106
-0.052118 0.175102 -0.236396
0.240529 -0.309635 0.327768
0.030814 0.687327 0.117627
-0.856851 0.142465 0.050960
-0.683483 -0.199830 0.025764
0.231113 0.918480 -0.194820
0.426683 0.610097 -0.041899
0.389992 0.386513 0.255628
0.165253 0.680765 0.330102
0.741736 0.144070 -0.077401
-0.280681 0.501077 0.092914
-0.020798 -0.192627 0.105392
-0.677895 0.116277 -0.279471
-0.229064 -0.869989 -0.043936
-0.351704 -0.224296 0.153076
-0.538229 0.000179 0.071594
-0.294241 0.271127 -0.252168
-0.800531 -0.013730 -0.079811
0.695265 -0.283505 0.153489
0.232880 -0.208240 0.122556
0.070041 0.497870 0.229032
0.063393 0.508356 0.223795
0.710946 -0.052798 -0.186129
0.654882 -0.209006 0.151300
-0.456350 -0.185053 -0.266648
0.238615 -0.366493 0.327210
0.271934 0.469221 -0.212104
-0.211544 -0.684574 0.270233
0.277056 0.560746 0.202582
-0.309929 0.404220 0.090191
-0.204928 -0.481074 -0.251751
0.032988 -0.227339 0.108794
-0.191049 0.414355 -0.244058
0.150514 0.745814 0.236204
-0.166959 -0.559581 -0.249755
0.006695 0.665858 0.319188
-0.760841 -0.085824 0.038351
0.193528 -0.196256 0.119966
-0.136752 0.419200 0.102102
0.572933 0.393916 -0.059773
-0.081124 -0.613900 -0.244317
-0.338068 -0.401641 0.287658
-0.368219 0.182666 0.118846
0.203648 -0.575961 0.117794
0.173320 0.271505 -0.220312
0.406118 -0.303236 -0.208783
0.443719 0.298336 0.329319
-0.879941 0.094660 0.012268
0.070179 -0.006578 0.112991
-0.240200 0.326280 0.094355
-0.092949 -0.691298 -0.245706
-0.282998 -0.470732 -0.256991
0.427732 0.601579 0.021803
-0.201900 -0.299730 -0.250178
-0.098998 -0.192686 0.100064
-0.892291 0.132294 -0.163765
-0.191342 -0.706691 -0.252525
-0.230738 -0.341406 0.295424
0.332909 0.187695 0.337809
0.424916 0.602739 0.049656
-0.899416 0.124492 0.005075
0.835594 -0.129686 0.164208
0.049354 0.455125 -0.227374
0.428366 0.101910 -0.204214
0.186378 0.536380 0.330454
-0.716589 -0.128933 -0.171407
-0.019409 0.661069 0.309304
0.332636 -0.123937 -0.212438
0.648674 0.193521 0.153909
0.614112 0.321534 0.040668
0.361798 0.406763 0.341428
0.772750 0.081964 0.067809
0.153750 0.055685 -0.223271
0.517524 -0.049409 0.143144
-0.119943 0.330265 -0.239848
-0.652405 -0.247177 0.034869
0.510418 -0.239084 0.141231
-0.008893 0.668086 0.309198
0.715365 0.004631 -0.185395
0.226116 0.498989 -0.215001
-0.638705 0.170068 -0.276396
0.206404 0.315997 -0.217723
-0.584094 0.016480 0.111947
-0.408092 0.262595 -0.259988
0.384805 -0.401511 -0.210975
-0.130505 0.583344 -0.238661
-0.007689 -0.144986 -0.235781
0.094922 -0.626390 0.110007
-0.309851 -0.155584 0.085979
0.332378 0.191160 0.337799
0.490902 -0.139515 -0.201773
-0.186205 -0.927408 0.088587
0.050542 -0.454981 0.313730
-0.570637 0.012562 0.274935
0.010371 -0.761592 0.103228
-0.185003 -0.158964 0.094459
-0.018828 -0.827810 0.052598
-0.070647 0.488280 0.107126
-0.451957 0.284211 -0.262813
0.148276 0.878874 0.124983
-0.195538 0.572665 -0.243171
-0.006407 0.455630 -0.231169
-0.566872 0.154860 0.276263
-0.054448 0.116830 0.301931
0.295745 0.454678 0.337289
0.648222 0.067931 0.152932
-0.533193 0.193428 0.278848
0.033732 -0.149266 0.109433
-0.416712 -0.506921 0.076052
0.071831 0.505105 0.138277
0.127363 -0.607207 -0.230063
-0.316101 0.176435 -0.254370
0.246905 0.896580 -0.209971
0.285679 -0.590997 -0.219156
-0.628159 0.310450 0.067805
-0.627406 0.366974 0.068283
0.386020 -0.466399 0.131044
-0.438043 0.342669 -0.261425
-0.224007 -0.055693 0.161075
-0.226023 -0.856819 -0.206151
-0.110797 -0.840265 0.094381
-0.335413 -0.691019 -0.230382
0.777421 -0.047247 0.160866
0.393809 -0.494454 -0.211062
-0.712253 -0.154323 0.001962
-0.510054 0.095321 0.279685
-0.606673 0.042077 0.272702
0.020121 -0.451311 0.311685
-0.185402 -0.756310 0.089931
-0.090553 -0.082481 0.181144
-0.070563 0.445829 -0.235613
0.551601 -0.081058 -0.197198
-0.221724 -0.589474 0.294169
0.406206 0.354720 -0.203819
-0.427227 -0.556119 -0.211697
0.170199 0.346098 0.250892
0.229977 -0.433080 0.326119
-0.266619 0.644960 -0.097550
-0.010531 0.611272 0.291073
0.068318 0.499981 0.233234
-0.109693 -0.579625 -0.246005
0.822323 -0.021400 0.164120
-0.054277 0.455146 -0.234433
-0.226371 0.335179 -0.247061
-0.421081 -0.365629 0.076819
0.265914 0.006254 -0.216002
0.056180 0.771590 0.117901
-0.212965 -0.848812 -0.255069
0.090912 -0.607523 -0.232549
0.158184 0.792139 -0.217420
0.290113 0.698724 0.133289
0.247559 0.868799 0.035626
0.751197 0.141331 -0.181596
-0.405701 -0.474958 -0.265382
0.328732 -0.249098 0.159176
0.645283 0.288283 -0.080648
0.327671 -0.079672 0.129983
0.206248 0.295007 0.226371
-0.388330 -0.404024 0.115630
-0.613246 0.245086 0.068329
-0.483871 -0.250748 0.073407
-0.427037 0.430995 -0.260010
-0.492517 0.414294 0.077828
0.145115 0.130553 0.119130
-0.458527 -0.336496 -0.267938
-0.241222 0.642371 0.096667
0.774109 -0.276869 -0.183514
-0.242227 -0.553197 -0.254835
0.263436 0.850311 -0.011946
-0.106105 -0.128554 0.100063
-0.394202 -0.492191 -0.264729
0.110490 0.444937 0.161260
-0.322118 0.542813 -0.252020
0.295475 -0.458372 -0.217489
0.337559 0.199315 0.338213
0.771096 0.089244 0.023707
0.442747 0.449951 0.141813
0.268621 0.831049 0.093686
0.209996 0.929810 -0.010045
-0.796640 -0.000596 -0.253317
0.074690 -0.043011 -0.229401
-0.601310 0.210567 0.077564
0.758155 -0.032485 0.159665
-0.332880 -0.691842 -0.257463
-0.545163 0.451537 -0.267903
-0.420958 0.107364 -0.262034
0.432775 0.324099 0.242822
-0.185808 -0.343054 0.168051
0.159805 0.304656 -0.220983
0.515716 0.003646 0.143421
-0.807367 0.278966 -0.227765
0.038255 -0.428330 -0.234786
0.158962 0.684598 -0.218178
0.493123 -0.344611 -0.203167
0.209867 0.764911 0.128321
-0.600939 0.221181 0.103693
0.234631 0.066800 -0.217677
-0.433068 0.178811 0.285559
-0.334976 -0.295889 0.288665
0.066395 -0.263493 0.110798
-0.536718 -0.405246 -0.097779
-0.320613 0.611462 -0.030265
-0.344590 -0.220587 0.125668
0.440123 -0.436920 0.134952
-0.251161 -0.252642 0.232763
0.015635 0.709387 0.114670
-0.254367 -0.183989 0.089545
-0.775668 -0.060807 0.011755
-0.382952 -0.024793 0.184989
0.292449 0.204999 -0.212697
0.850680 -0.018911 -0.072901
0.042585 -0.013756 0.221623
-0.792157 0.083588 0.054924
0.340197 -0.281562 0.299949
0.228418 0.911216 -0.091440
0.462139 0.537321 0.140369
0.416049 -0.331777 0.134104
-0.601271 -0.277077 -0.277215
0.113212 0.440904 0.161017
0.062508 -0.407429 -0.232976
0.718287 -0.012750 0.157098
0.877161 -0.066016 -0.003198
-0.230753 -0.878468 0.056834
0.068448 0.831706 -0.223235
-0.546722 0.007485 0.188735
-0.399793 -0.616813 -0.030493
-0.119630 -0.767701 0.094326
-0.566143 -0.230275 0.067956
-0.005195 0.819152 -0.106964
-0.372097 -0.386772 0.285452
-0.375288 -0.432643 0.199625
-0.280922 -0.173159 -0.254608
0.241660 0.841020 0.131060
0.033019 -0.439531 0.312653
0.549409 -0.337476 -0.199279
0.267223 0.856067 -0.116439
-0.233577 -0.788142 0.086409
0.667746 0.231164 0.135737
0.925899 -0.140431 0.012592
0.692280 0.195199 0.129985
-0.075261 0.627255 -0.234566
-0.709626 -0.154820 -0.029367
0.149354 0.925779 -0.016433
0.646430 0.159279 -0.188926
-0.430690 -0.115793 0.078047
0.687840 0.236235 -0.185320
0.315419 0.462602 0.338689
0.388190 -0.217359 0.133068
-0.450027 -0.544283 -0.008568
-0.212637 -0.008556 0.299165
-0.235544 -0.865859 0.006776
-0.906051 0.142963 -0.073494
0.527398 0.347583 0.146808
0.066096 -0.293761 -0.231876
-0.073345 0.608690 0.107850
0.247937 0.881117 -0.082398
-0.285084 -0.156377 -0.254765
-0.845508 0.041566 0.028179
0.045788 -0.616384 0.155119
0.665384 -0.299241 0.151335
-0.380741 -0.025106 0.179114
-0.710817 -0.143414 -0.117597
-0.386969 -0.024593 0.213276
0.414482 -0.264797 0.134502
-0.441262 -0.528716 0.074215
0.542615 0.282503 0.147355
-0.408850 -0.394207 0.077437
0.776645 -0.146864 0.160063
-0.180790 -0.522044 0.092010
-0.253642 -0.331027 -0.253939
0.063044 0.095609 0.207088
0.007066 -0.045090 0.313857
0.213547 0.319119 -0.217213
0.059933 0.521730 0.148553
0.314575 0.364331 -0.209989
0.137580 0.855570 0.124079
-0.038093 -0.077319 0.310537
-0.472462 -0.488917 -0.209257
0.224003 0.906767 0.009654
0.540065 0.435345 -0.194093
-0.363809 -0.654715 -0.174975
0.261277 -0.128361 -0.217333
0.588207 0.344093 0.150925
0.325857 -0.246885 0.178197
0.106070 0.738981 0.154682
-0.135150 0.204410 0.100593
-0.379677 -0.443727 0.079051
0.624386 0.033773 -0.191374
-0.186347 -0.655125 0.296084
0.282477 0.175987 0.334285
-0.067642 -0.154049 0.102491
-0.322160 0.160460 -0.254903
0.599855 0.143754 -0.192216
-0.235733 0.365196 0.094952
0.415907 0.381670 0.139470
0.288861 -0.246236 -0.216341
-0.868249 0.124220 0.050046
-0.144716 -0.292208 -0.246226
-0.769045 -0.046765 -0.207413
0.205741 0.488213 0.331410
-0.310400 -0.643342 0.082267
-0.195223 -0.914798 -0.095835
-0.314058 -0.254999 0.290398
0.807884 0.033768 -0.178873
-0.609475 -0.284364 -0.211073
-0.386769 -0.068570 0.081394
-0.326858 -0.018145 -0.256569
-0.364725 -0.449956 0.213894
-0.296003 -0.374782 0.290726
-0.277144 -0.596783 -0.257542
-0.146190 0.425575 0.101507
-0.301665 0.051685 0.293553
-0.389179 -0.276853 0.285116
-0.441113 -0.184244 0.076821
-0.547365 -0.377055 0.068129
0.211957 0.287859 -0.217556
-0.219264 0.218156 -0.247459
-0.343379 -0.213671 0.083257
0.618114 -0.336511 -0.194591
-0.249766 0.396901 -0.248190
-0.098280 -0.016502 0.306895
-0.136412 0.203598 -0.241924
0.436856 0.084973 0.138661
-0.290369 -0.781946 -0.012847
-0.264218 -0.548089 -0.256295
-0.154583 0.102722 -0.243922
-0.587230 -0.339193 -0.012710
0.652798 0.015754 0.152851
0.134029 -0.465125 -0.228539
0.831141 -0.206153 0.163329
0.006378 0.819705 -0.227554
0.622698 -0.001342 0.150672
-0.505465 0.063591 -0.268121
0.061299 -0.395742 -0.232971
0.634384 0.309359 -0.124798
0.029849 -0.194630 -0.233598
-0.209406 -0.314139 0.225613
-0.377361 -0.555990 -0.264062
0.180172 0.072751 -0.221343
-0.222977 -0.244109 -0.251195
-0.089807 0.744640 0.107752
0.174655 -0.596332 -0.226760
0.006525 0.604226 0.122542
0.316693 -0.379550 0.332430
-0.336169 0.101017 0.291574
0.188575 0.921385 0.128049
-0.799397 0.084736 0.054439
0.522601 0.459012 0.031614
0.250954 -0.349153 -0.219699
-0.543696 0.129403 -0.270230
-0.885886 0.215062 -0.292896
-0.221905 -0.659605 0.183044
0.380365 -0.100518 -0.209010
0.456673 0.425753 0.142579
-0.048312 -0.207861 0.103403
0.015718 0.276801 -0.231009
0.557067 -0.170732 -0.197501
0.690527 0.008387 -0.187059
-0.218340 -0.294228 0.165257
-0.028984 -0.592555 0.307276
0.173082 -0.223445 -0.224057
-0.490200 -0.479324 -0.054745
-0.413121 0.016731 0.285697
-0.067338 -0.181388 -0.240119
-0.899000 0.140952 -0.151421
-0.286490 0.245562 -0.251832
-0.602697 0.124237 -0.274288
0.527405 0.440045 0.139741
-0.256925 -0.692503 0.085539
-0.052889 0.275440 -0.235693
-0.175498 -0.560204 -0.250342
0.214152 -0.002614 -0.219596
-0.459106 0.198876 -0.263944
0.775171 -0.025109 -0.181545
0.578134 -0.388263 0.144720
-0.237351 -0.005415 -0.250376
-0.416529 -0.378060 0.263091
-0.000598 0.110713 -0.233372
0.750808 -0.108066 0.158595
0.306443 -0.612330 0.007807
0.505777 -0.442200 -0.203040
-0.175649 0.051323 -0.245745
0.546590 -0.141076 -0.197991
0.443123 0.523934 -0.200029
0.872792 -0.053569 -0.057523
-0.507891 -0.324824 -0.271213
0.583652 -0.264372 -0.196395
0.024401 -0.432735 -0.235763
0.060893 0.067060 0.188184
0.609702 -0.069884 -0.193155
0.282390 0.596047 -0.210436
0.014997 0.476425 0.112871
-0.172924 0.025739 0.302128
0.136314 0.067976 -0.224366
0.179209 0.883767 -0.215298
0.643117 0.286472 -0.034444
0.059566 0.806757 0.118397
0.334079 -0.274535 0.319172
0.033223 0.101253 0.218885
-0.121487 -0.360359 -0.245157
-0.655104 -0.238954 -0.003597
-0.413477 -0.585655 -0.128977
-0.374018 -0.453178 0.079365
-0.269531 0.193475 0.091356
0.492997 0.125889 -0.199631
0.059882 -0.011361 0.112254
-0.260436 -0.827347 -0.005912
-0.207642 -0.055776 -0.248731
0.296767 -0.453882 -0.217367
0.407991 0.632776 0.005747
-0.147511 0.289614 0.100393
0.291641 -0.210458 0.312028
0.900127 -0.155756 0.168408
-0.069600 -0.089248 0.306301
0.216754 0.774306 -0.213565
0.046625 0.540675 0.156829
-0.398279 -0.084395 0.080491
0.356323 -0.306469 0.307788
-0.304376 0.204852 0.089068
0.276277 0.194763 0.128549
-0.374696 0.127217 0.289147
0.034176 -0.192793 -0.233289
-0.246645 -0.735289 -0.256508
0.293474 0.171893 0.162385
-0.474478 -0.253648 0.074025
0.023507 0.411581 0.112963
0.359692 -0.255489 -0.211586
-0.588439 0.180995 -0.272889
0.278062 0.447257 0.336028
0.252859 0.218099 0.294064
0.736205 0.138136 0.052544
-0.608640 0.357568 0.069490
0.396057 0.034975 0.135505
0.168450 -0.706896 -0.056206
0.458503 -0.110205 -0.203760
-0.162053 0.249985 0.099104
-0.258594 -0.258365 0.294151
-0.887989 0.103927 0.037341
0.043785 0.856317 0.010589
0.606251 -0.117554 0.148676
0.531859 -0.174514 -0.199247
0.414712 0.135703 -0.204890
-0.074219 0.291077 -0.237028
-0.482538 0.188402 -0.265619
-0.485209 0.415769 0.078337
-0.249720 0.159224 0.120250
-0.456210 0.063147 -0.264769
-0.631246 -0.251386 -0.215715
-0.453638 -0.010879 0.187440
0.192872 0.325737 0.127606
-0.306449 -0.407737 -0.258114
-0.364337 -0.519773 -0.262902
0.105970 -0.716951 0.110077
-0.589912 -0.333448 -0.028689
0.440788 -0.036516 0.138014
0.296924 0.082171 -0.213318
0.193514 0.309243 0.269944
0.435200 0.599287 -0.059254
-0.200908 -0.439001 0.091265
0.272986 -0.591838 -0.220027
-0.120400 0.674898 0.105143
0.456891 0.569147 -0.079520
0.016318 0.421641 0.112549
0.747126 -0.139471 -0.184317
0.041255 -0.046158 0.144826
-0.638928 0.347101 -0.275077
-0.063431 -0.022409 0.309225
0.661651 0.178090 0.154677
-0.266083 -0.589506 0.144493
-0.479755 0.204286 0.138642
0.221188 0.304109 0.331075
0.300063 0.006327 0.128750
-0.785508 -0.044661 -0.001717
0.578850 0.397320 -0.171827
-0.937887 0.186703 -0.039190
0.150866 0.501213 -0.220111
-0.230065 -0.880001 0.061477
0.408345 0.371604 0.141421
-0.266670 -0.536566 0.086050
-0.456216 -0.349992 -0.267882
-0.834719 0.037344 -0.080574
-0.722729 0.306792 0.061335
0.061867 0.635095 0.322715
0.022231 0.563012 0.285520
-0.443701 0.052641 -0.263996
-0.200607 -0.901934 -0.140124
0.224320 0.660316 -0.213908
0.153406 -0.042849 0.118388
-0.739564 0.092042 -0.283855
0.468488 -0.191025 0.138737
-0.190884 -0.062098 0.154419
0.349575 -0.111624 -0.211191
0.373649 0.247621 0.341036
-0.487500 -0.271744 -0.269424
0.622849 0.319877 -0.063546
-0.652646 -0.242503 -0.004658
0.630514 0.302779 -0.011628
0.612937 0.345355 -0.161521
-0.437755 -0.548217 -0.140230
0.280830 0.393203 0.335809
0.256033 0.845841 0.130171
-0.124272 0.718783 -0.237215
0.851265 -0.016391 -0.103987
0.348423 0.620311 -0.205755
-0.090226 0.177157 -0.238977
-0.382086 0.460961 -0.256722
0.038958 0.539167 0.275407
-0.499684 -0.001382 0.168430
0.166551 0.757897 0.125317
0.058729 0.038425 0.135142
-0.618893 0.138673 0.126780
0.190380 0.953193 -0.015854
-0.286562 -0.044155 0.200172
0.491653 -0.269108 -0.202698
0.011644 -0.796020 -0.239369
-0.414542 0.190935 0.160901
0.543683 0.250739 0.147188
-0.172563 0.381840 0.099381
0.266512 0.859497 -0.138150
0.141680 -0.713721 -0.229891
-0.358298 -0.323082 -0.261009
-0.121016 -0.488584 -0.246091
0.909897 -0.129950 0.135228
-0.743181 -0.110968 0.027386
-0.262999 0.028339 -0.251868
0.915431 -0.116044 -0.067794
-0.378767 -0.657693 0.056722
-0.264856 -0.375233 0.292844
0.133730 -0.138661 -0.226099
-0.147707 -0.211410 0.096604
0.312184 0.269517 -0.210867
-0.280403 -0.764016 0.083401
0.576418 0.238212 -0.193101
0.638150 0.226159 -0.188987
0.207074 0.915780 -0.213158
0.275640 0.425244 -0.212183
-0.034250 0.468652 -0.232967
-0.308959 0.437914 0.090511
0.544216 0.208121 -0.195522
-0.910322 0.154832 -0.123881
-0.169451 -0.734431 0.151815
-0.623950 -0.284602 -0.011093
0.603587 0.331634 0.091964
-0.830264 0.143132 -0.289649
0.039516 0.050251 -0.231094
-0.117906 -0.846216 0.093852
-0.355718 -0.031663 0.255936
0.136404 -0.555723 -0.229060
0.254405 -0.287313 0.328882
-0.135184 -0.042084 0.304188
-0.128386 -0.236846 -0.244696
-0.306572 -0.203147 -0.256581
0.337338 0.476881 0.147205
0.933027 -0.145837 -0.035285
-0.220941 -0.399143 -0.252224
0.622188 0.033718 -0.191524
0.363949 -0.470346 0.129510
0.487909 0.376427 -0.198090
0.599500 0.154837 0.150268
0.334888 -0.071203 -0.211887
-0.372667 -0.424566 -0.262752
0.343452 0.087991 0.248143
0.000661 -0.664982 0.103295
0.512272 0.240136 -0.197457
-0.381383 0.030421 0.287962
0.241926 -0.412093 0.327091
0.204953 0.011307 0.122308
-0.230848 0.031817 -0.249652
0.027243 -0.347679 -0.234929
-0.282966 -0.676580 -0.258540
0.526418 0.212219 -0.196703
-0.844615 0.180913 -0.290342
-0.159030 -0.720897 -0.250431
0.137226 0.277530 -0.222725
0.310724 0.781136 -0.024359
0.047495 0.668093 0.321984
0.673289 -0.019182 -0.188441
-0.101831 -0.644967 0.301918
0.474562 -0.224802 -0.203529
0.418979 0.107876 0.137616
-0.165255 -0.016592 0.302332
-0.055464 0.096596 -0.237216
0.336223 -0.159957 0.129960
0.193610 -0.518499 0.133666
-0.293212 0.483599 -0.250497
-0.341955 -0.649009 -0.262351
-0.453516 -0.295101 0.078615
-0.481244 -0.325210 0.073025
0.487271 0.505723 0.086434
0.357914 0.440963 0.195110
-0.169974 -0.254897 0.094760
0.437687 0.446581 0.141442
0.060384 0.057588 0.167536
-0.529679 -0.427821 0.012858
-0.033493 0.333819 0.108493
0.304331 -0.215738 0.186992
0.175459 0.285991 -0.220057
0.215714 0.490384 -0.215775
-0.816758 -0.000428 0.020061
-0.124613 0.734612 -0.233609
-0.352084 -0.029157 0.102392
0.009942 0.708698 -0.228148
0.443294 0.308290 0.243922
-0.713983 0.057319 -0.282374
-0.216256 0.151122 0.191276
0.202110 -0.034365 0.121770
0.193745 -0.474263 0.323341
-0.014121 -0.756908 0.101595
0.274072 -0.441805 0.329058
-0.406351 0.316953 -0.259460
0.165651 -0.667716 0.114514
-0.000910 -0.026221 0.313455
0.653053 -0.351416 -0.192323
-0.256332 0.424150 0.093993
-0.363859 0.390107 -0.256014
-0.107971 -0.196708 -0.243003
0.351180 0.707563 0.096879
0.145495 -0.282255 -0.226380
-0.610781 0.020318 0.180299
0.061182 0.701927 0.323172
-0.517005 0.225694 -0.267686
0.665533 0.261666 -0.113494
-0.278615 -0.209111 0.209090
-0.504735 0.062304 -0.268081
-0.368248 -0.539015 -0.263313
-0.289490 0.218742 0.090186
0.621709 -0.064109 0.150131
0.044788 0.702686 0.276450
0.360247 0.440191 0.170298
0.132854 0.671508 0.327825
0.039291 0.856788 0.117392
-0.291991 -0.304879 -0.256354
-0.432074 0.133741 -0.262593
0.446041 0.314889 0.145927
0.308270 0.783449 -0.012021
-0.036929 0.540850 0.109819
-0.004314 -0.249117 -0.236336
0.415105 -0.297373 0.134299
0.335944 0.094758 0.288747
-0.174862 -0.931563 0.063904
-0.185021 -0.897976 0.088890
-0.198439 0.543856 -0.243586
-0.297202 0.355743 0.090693
-0.075869 0.681287 0.108225
-0.507489 0.001235 0.117199
-0.719349 -0.129511 -0.128388
-0.109073 -0.717745 0.208809
-0.478999 -0.503398 0.012755
0.145771 0.593458 -0.219763
-0.358723 -0.670162 -0.102952
-0.623471 -0.270356 -0.148155
-0.028276 0.776501 0.112184
0.386742 0.496195 0.138346
-0.198956 -0.061385 0.196450
-0.246931 -0.259962 0.242021
-0.749794 -0.090691 -0.068023
-0.321625 0.369427 0.089133
0.255986 0.876674 -0.151690
0.663869 0.262615 -0.099451
0.127081 -0.684125 0.111763
-0.495310 -0.233387 0.072758
0.675555 -0.216265 0.152653
-0.284610 -0.187863 0.096331
0.792846 -0.263814 0.160285
0.368753 -0.025452 0.133190
-0.047829 -0.164441 0.103763
-0.541155 0.188204 0.278267
0.588504 -0.405922 -0.197131
-0.371070 -0.435069 0.164204
-0.364015 -0.068803 0.082943
-0.077830 -0.519473 -0.243381
-0.125723 0.329728 0.102179
-0.265988 0.517995 0.094042
0.499341 0.265322 -0.198148
0.421468 0.237691 0.344219
0.191054 0.677058 0.312167
0.919425 -0.182218 -0.172902
-0.477236 0.294363 0.077966
0.043147 0.111080 0.112036
0.089916 0.790466 0.120341
-0.646461 0.045721 0.262965
0.891304 -0.076670 -0.098848
-0.534606 -0.397042 -0.201815
-0.562985 -0.089276 -0.273191
0.463847 0.289529 -0.200384
0.705388 -0.153751 -0.187268
-0.027062 0.683458 -0.230859
-0.228453 -0.855119 -0.188520
-0.728556 -0.125675 0.057680
-0.808459 0.182505 0.054558
0.292555 0.469030 0.337179
0.107233 0.542839 0.325110
-0.552836 -0.376403 -0.141791
-0.227159 0.305521 0.095087
-0.637773 -0.197115 -0.279099
-0.055674 -0.088191 0.124882
-0.435711 -0.336533 0.144747
0.044614 -0.305259 0.108999
-0.028524 0.112246 0.276318
-0.339376 -0.682494 -0.254342
0.543152 -0.256190 0.143332
-0.193534 0.128053 0.301495
0.197923 -0.067106 0.121238
0.380806 0.682232 -0.075889
-0.025955 -0.327281 -0.238399
-0.399926 0.426422 -0.258197
0.257932 -0.631032 -0.221348
0.290138 -0.623458 0.001440
0.141592 0.531957 -0.220511
0.088227 0.046414 0.114620
-0.418451 -0.393992 0.076784
-0.219228 -0.058420 0.246002
-0.394035 0.546949 0.085537
-0.103193 0.260115 0.103190
-0.159783 -0.727339 -0.250531
-0.796632 0.106406 0.054791
0.394743 0.490045 0.138844
-0.266548 -0.242035 -0.254147
0.116641 -0.195889 -0.227695
-0.376259 0.490440 0.086322
-0.204537 -0.905862 -0.050433
-0.606926 0.139237 0.273417
0.399700 0.353605 -0.204271
0.242709 0.039388 -0.217334
0.193608 0.470740 -0.217429
-0.457810 0.199879 0.142067
0.570446 -0.123547 -0.196234
0.144391 0.707579 0.328883
-0.597718 0.016335 0.247075
0.345778 -0.429228 -0.213843
0.395756 0.650668 0.009006
-0.163863 0.526390 -0.241362
-0.209300 -0.483012 -0.252063
-0.695889 0.252829 -0.279668
0.062394 0.517607 0.152700
0.680307 -0.249451 -0.189698
-0.497454 0.055051 -0.267640
-0.301598 -0.763552 -0.027921
-0.231798 0.640175 -0.245133
-0.389336 0.160906 -0.259476
0.055118 0.429504 0.115251
-0.705327 0.274290 0.062276
0.492893 0.196283 -0.199107
0.358682 0.206765 -0.208172
-0.402280 0.187292 0.219002
0.201909 -0.570292 0.117718
-0.219175 -0.869913 -0.179766
0.151739 0.754099 0.143559
-0.085992 -0.567986 0.303577
-0.578833 0.223916 0.136014
-0.936073 0.176686 0.027803
0.053624 0.025923 0.174436
-0.438182 -0.041059 0.078099
-0.551705 0.315137 -0.269376
-0.097943 -0.079426 0.105155
0.027040 -0.631055 -0.237078
0.252902 -0.157762 -0.218125
0.114279 0.188004 0.117462
0.326203 0.110286 0.279590
0.100025 -0.255294 0.113151
0.655897 0.097666 0.153679
-0.583762 0.224631 0.148371
-0.774047 -0.060813 -0.010344
0.414479 0.624431 -0.006460
-0.177845 0.201380 -0.244764
0.427919 0.137753 0.308403
0.930032 -0.150791 0.051030
0.008447 -0.037049 0.314011
0.064492 0.272369 0.114706
0.379765 0.089704 0.134808
-0.723967 -0.118938 0.058043
-0.351916 -0.028860 0.086662
-0.698898 -0.164896 -0.083663
0.926171 -0.192213 0.169908
-0.243954 0.587300 0.096066
-0.604729 0.271313 -0.273318
-0.531229 -0.006403 -0.270404
-0.237561 0.156430 -0.249170
-0.185188 0.068620 0.301616
0.353053 -0.584453 -0.214517
-0.718982 0.089934 0.059957
-0.204405 0.127775 0.300753
-0.448994 -0.151098 0.076534
0.954938 -0.174076 -0.075980
0.186534 0.693964 0.219040
-0.242973 -0.511925 -0.254575
0.780590 0.025445 0.161630
-0.675277 -0.090956 0.061571
0.472012 0.526540 0.104226
-0.430970 0.208141 -0.261957
-0.450181 0.045325 0.283388
0.275561 -0.229580 0.330758
-0.007368 0.722887 -0.229220
-0.362471 -0.521014 -0.262784
-0.320879 0.132555 -0.255026
-0.433935 0.193779 0.207919
-0.035022 -0.077793 -0.237137
0.330814 0.747633 0.008063
-0.012132 0.437077 -0.231698
0.275118 0.578323 -0.211065
-0.720640 -0.004239 0.059134
0.531601 -0.055704 -0.198369
-0.392781 -0.365845 0.284200
0.795300 -0.143654 0.161358
0.125945 0.479513 0.325908
0.623312 -0.111315 0.149885
-0.776343 0.241661 0.057192
-0.477756 0.157652 -0.265525
-0.674030 -0.016536 -0.280208
0.660700 0.237106 -0.187368
0.293311 0.623416 0.132939
-0.334154 -0.698056 -0.183120
0.118967 -0.497899 -0.229812
-0.493532 0.017956 -0.267652
0.747304 0.146572 -0.176424
-0.088382 0.600359 -0.235663
-0.560401 0.011654 0.118888
-0.465361 -0.494323 -0.256766
-0.116615 0.633003 -0.237340
0.611585 0.184542 -0.191110
-0.035560 -0.050487 0.310912
0.212686 0.660232 0.170725
0.196080 -0.001948 -0.220822
0.393388 0.376012 0.305441
-0.282908 0.075574 -0.252869
0.434596 0.197352 0.344809
0.788131 0.039744 -0.180174
-0.372831 -0.027484 0.217912
0.312378 0.126469 0.320239
-0.266770 -0.804916 -0.124885
0.943221 -0.154750 -0.092928
-0.076767 -0.422693 0.099845
0.239477 -0.398163 0.327030
0.672099 0.084525 0.154684
0.359577 0.704013 0.014652
-0.124824 -0.612690 -0.247285
-0.548173 0.364134 0.073659
-0.340708 -0.039141 -0.257671
0.164338 0.607671 -0.218391
-0.063949 0.341198 0.106474
-0.204238 -0.916418 0.042192
-0.142857 -0.621567 0.299300
-0.293964 -0.282318 0.291561
0.174391 0.657133 0.330547
0.442742 0.300869 0.319465
0.263627 0.871340 -0.207238
0.130340 0.477869 -0.221685
0.499630 -0.090134 0.141619
-0.565789 -0.304237 0.067423
0.454690 0.044096 -0.202857
-0.336366 -0.710459 0.079992
-0.577520 0.012922 0.219568
-0.430585 -0.340602 0.111967
0.103096 -0.753344 -0.130307
0.817602 0.010749 0.107369
-0.072272 0.717448 0.108742
0.671811 0.232955 0.063775
-0.488072 -0.460018 -0.260718
-0.652631 0.291330 -0.276431
0.227024 -0.071081 0.123191
0.057938 0.562764 0.321902
-0.060537 -0.122984 0.103209
0.160235 0.309942 0.121511
0.647120 -0.197240 -0.191566
0.055559 -0.380111 -0.233244
0.818687 0.004565 0.149199
-0.486221 0.226648 0.076844
0.265635 -0.025771 0.126162
0.401494 0.378920 0.168017
-0.181816 -0.726985 0.252568
0.216722 0.392740 0.331438
0.325864 -0.139276 -0.213015
0.075817 0.085941 -0.228352
0.074424 -0.636301 -0.233889
-0.645865 -0.227621 -0.233672
-0.674166 0.299701 -0.277835
-0.426423 -0.328244 -0.265689
0.347239 0.180128 -0.209152
0.220041 0.913826 -0.000879
