-0.385423 -0.190578 0.290560
0.202158 0.189556 -0.224367
-0.577625 -0.414661 -0.184652
0.234431 0.223435 0.198775
-0.110292 0.342513 0.258482
0.203461 0.574940 0.109856
0.321795 0.037686 -0.211696
-0.615581 -0.300689 -0.100223
-0.324226 0.355784 0.075425
0.424626 -0.276221 -0.196096
0.595408 -0.417305 -0.179952
0.594755 -0.002521 0.152002
0.624596 0.009634 0.153877
-0.603914 -0.365871 0.003575
0.520965 0.086368 -0.198344
-0.793600 0.365636 -0.271425
-0.063735 0.554830 -0.253242
-0.208658 0.431035 0.287557
-0.529751 -0.630522 0.019198
0.118063 0.573576 -0.240394
0.555767 0.589009 -0.110723
0.061465 0.642521 -0.246314
0.102910 0.034604 0.320580
-0.096034 -0.384057 -0.231499
0.600598 0.433999 -0.122660
-0.283398 0.403825 -0.265469
0.340238 0.771816 -0.229196
-0.253328 0.412185 0.284766
0.331561 -0.435123 0.349406
0.439381 0.697921 -0.220030
0.106002 -0.254374 -0.220017
-0.603754 -0.072433 -0.276725
0.704662 -0.314407 0.168069
0.481070 -0.218341 0.354801
0.359519 0.714698 0.116337
-0.273557 -0.672702 0.105551
-0.720686 0.102511 -0.243443
0.244346 0.011256 -0.216695
-0.351420 0.447629 0.224325
-0.678681 -0.049129 -0.227076
0.387013 0.246230 -0.212270
0.442563 -0.306366 -0.194006
0.604646 0.217247 -0.195570
-0.620581 -0.290283 -0.069272
-0.412466 -0.270334 0.085034
0.239468 0.235372 0.217566
0.403476 -0.380106 0.353266
-0.343196 0.364490 0.073810
0.230383 0.213162 0.179334
0.398475 -0.252081 -0.198633
-0.812002 0.426708 -0.255512
-0.699603 -0.018621 -0.041473
0.781674 -0.385060 0.175529
-0.569340 -0.443215 -0.187256
-0.381130 -0.704724 -0.244166
0.615929 -0.146723 -0.185396
-0.143009 0.331865 -0.253328
0.146139 0.503218 0.311715
-0.465619 0.378136 0.097084
0.582417 0.402649 0.140692
0.375099 -0.610059 -0.191154
-0.273764 -0.779028 -0.234386
-0.784967 0.379314 0.041041
-0.642310 0.228499 0.260964
-0.520466 -0.463569 -0.260575
-0.617854 0.290145 0.261174
-0.665248 -0.154970 0.024953
0.349310 -0.253630 0.140455
-0.560141 0.381985 0.263047
-0.557497 -0.049099 0.093308
0.450376 -0.415875 0.357623
0.174299 0.708621 -0.239739
0.506120 0.778906 -0.175970
-0.386438 -0.208115 0.290936
-0.216632 0.051013 -0.251513
0.141934 0.294190 -0.231470
0.079258 -0.650926 0.130859
-0.060641 -0.058215 -0.237272
0.571594 -0.419226 -0.181648
-0.593413 -0.415099 0.056381
-0.832227 0.433560 0.021347
0.476422 0.600042 -0.214801
0.762367 -0.159937 -0.016860
-0.381206 -0.499968 -0.249430
0.568982 0.530882 -0.060726
-0.005421 -0.628791 -0.218571
-0.473209 0.416184 -0.279702
-0.798773 0.339857 -0.082115
-0.559883 -0.461830 -0.250381
-0.088183 0.034710 -0.241677
0.572290 -0.514472 -0.179151
0.244309 0.681159 0.108751
-0.097968 -0.519270 -0.228168
-0.463430 -0.796143 0.094800
0.030934 0.292673 0.274684
-0.560626 -0.057115 0.175192
-0.235632 -0.589111 -0.236468
0.776100 -0.182753 -0.126683
-0.168166 0.148017 -0.250451
0.149003 0.297583 -0.231039
0.817984 -0.387114 0.118404
0.343770 0.685194 0.115940
-0.013727 -0.124143 0.110514
-0.250305 0.323836 0.287256
0.651480 0.229472 -0.013154
-0.038277 -0.009144 -0.236892
0.153462 0.071772 0.153577
0.494630 -0.497716 -0.185275
-0.230394 0.354411 0.287931
0.111401 -0.352244 -0.217108
0.285028 0.249399 0.122824
0.012704 0.217269 0.309276
0.070338 0.046855 -0.230367
0.826299 -0.417580 0.123565
-0.770911 0.342638 -0.299640
-0.359730 -0.161742 0.291703
0.143194 -0.663405 0.135867
-0.560038 0.280790 0.265653
-0.676546 -0.047823 -0.265044
-0.110195 0.528526 0.086680
0.254760 0.461457 -0.227493
-0.293287 -0.771999 -0.235998
0.146426 -0.094801 0.121502
0.274486 0.295239 0.200550
0.012190 -0.406756 -0.222981
-0.113916 0.378649 0.157858
-0.749253 0.200648 -0.233087
0.509382 0.724340 0.009453
-0.460418 0.445992 -0.279530
-0.685781 -0.048998 -0.120103
0.528951 0.672582 -0.064201
0.253333 0.254607 0.182288
-0.047728 -0.478461 0.117120
0.354079 -0.541871 0.148207
-0.065609 0.135840 -0.242619
-0.054324 -0.108247 0.107129
0.268485 0.167970 -0.218950
-0.250231 0.437647 0.284339
0.738078 -0.102555 0.104094
0.755246 -0.134599 -0.018044
0.698390 -0.269282 0.166450
0.473699 0.825396 0.115045
-0.030943 0.272053 -0.243576
-0.117251 0.360992 0.284355
-0.595972 0.052407 0.239231
0.638279 0.084123 -0.189685
0.070800 0.678453 -0.246553
0.072635 -0.097389 -0.226495
-0.322617 -0.778386 -0.237985
0.570281 -0.204150 -0.187268
0.579993 0.231907 0.144899
0.205310 -0.112874 0.126283
-0.417499 -0.076154 0.285270
0.781012 -0.260788 0.134746
0.143456 -0.362647 0.333754
0.041882 0.526329 0.097886
0.325213 0.127158 0.128910
-0.360551 0.547189 -0.274807
-0.513198 0.184960 -0.276696
0.319652 0.633527 -0.227154
-0.606540 0.337805 0.260780
0.552330 0.568554 0.029373
-0.220887 -0.574460 -0.235763
0.730782 -0.056698 0.017243
0.769658 -0.151141 -0.165154
0.625686 0.022909 -0.189036
0.852481 -0.459397 -0.093055
-0.272524 0.287643 -0.261688
0.397004 0.242737 0.131205
0.508324 0.705867 0.104983
-0.328239 -0.612808 -0.242649
0.757770 -0.137888 -0.042123
0.270870 0.308336 0.325410
0.401449 0.103869 0.135097
0.690412 -0.013515 -0.183356
-0.426978 -0.786809 0.097233
-0.370847 -0.816535 0.102112
0.613006 -0.336851 -0.180727
-0.706342 0.027390 -0.137412
-0.083330 -0.258367 0.108858
0.319487 0.526041 -0.224406
-0.083433 0.624481 -0.256474
0.115540 -0.443909 -0.214450
0.750253 -0.363217 -0.169988
-0.303520 0.303993 0.116948
-0.035618 0.110010 0.308487
-0.652120 -0.007131 -0.281948
-0.307455 -0.561113 0.100200
-0.003734 0.221917 -0.240293
0.001603 -0.534427 0.122174
-0.306802 -0.118217 -0.253778
-0.688127 0.181860 0.053211
-0.752536 0.464327 -0.301417
-0.523445 -0.176384 -0.268168
-0.780699 0.322871 -0.282780
-0.290946 0.429931 -0.266692
-0.502116 -0.151091 0.280991
-0.475949 -0.301295 -0.261478
-0.319207 -0.158495 0.188873
-0.614221 -0.330493 0.007443
0.360258 -0.132242 -0.204512
0.299003 0.275157 -0.219465
0.583277 0.435723 0.132286
-0.382205 -0.550892 -0.248195
0.090290 -0.223371 -0.221965
0.071678 -0.071879 0.168838
0.374126 -0.024086 0.136380
0.714743 -0.342941 0.169541
-0.505224 0.517015 -0.284639
-0.536215 -0.580123 -0.099798
-0.747192 0.151288 -0.051869
-0.072308 -0.452242 -0.228008
-0.238800 -0.634943 -0.235523
0.510742 -0.414697 0.362019
-0.172514 -0.131945 0.099072
-0.356222 0.465223 0.221346
-0.038978 -0.389878 0.174167
0.244017 0.115006 -0.219384
-0.369309 -0.607424 0.096855
0.068661 0.692055 -0.247059
0.442500 0.702592 0.122732
-0.025625 -0.520019 0.119807
0.796643 -0.441276 -0.164582
-0.549380 -0.083768 0.119567
0.372723 -0.066594 0.137369
-0.125155 0.485835 0.086680
-0.370785 0.035185 0.136575
0.011337 0.657888 0.092269
0.630192 -0.126089 -0.184880
0.696943 0.029822 0.157450
0.217978 -0.031379 -0.217534
0.190800 -0.652349 -0.203580
-0.219760 -0.744615 -0.231311
0.320665 0.042794 0.130743
-0.148321 -0.740094 -0.226189
-0.025675 0.561469 0.092031
-0.097975 0.298150 0.093492
0.389561 0.351784 -0.214794
-0.541620 -0.049342 0.275482
-0.021421 -0.687829 0.124425
0.587533 0.450817 0.002863
-0.158753 0.416366 0.291592
0.017205 -0.265533 -0.226240
0.290798 -0.471560 0.347354
-0.126076 0.011767 0.271275
0.819945 -0.371905 0.023239
-0.302365 -0.418016 -0.245754
-0.748935 0.436607 -0.300442
-0.116198 -0.607127 -0.227249
-0.560015 -0.474206 -0.195125
0.254104 0.670171 0.109752
0.006707 0.035780 -0.234748
0.266974 -0.091761 0.130262
-0.228316 -0.292320 -0.243553
0.588833 0.339414 0.142786
-0.140798 0.371201 0.294069
-0.298152 -0.357909 -0.246989
-0.215194 -0.172463 -0.245669
0.626971 -0.151690 0.158194
0.390034 0.099266 0.134378
-0.491449 -0.244098 0.284161
-0.271468 0.325299 0.285667
-0.157264 -0.715755 0.115183
0.477240 -0.097773 -0.196821
0.520817 0.236397 0.140445
0.330749 0.573687 0.117849
-0.614011 0.464133 -0.291256
0.477601 0.764043 0.123727
-0.338550 -0.067802 0.091546
0.018816 0.530914 -0.246575
-0.678440 -0.068836 -0.145912
0.666017 0.176750 -0.006445
-0.026386 -0.045770 -0.235080
-0.535534 -0.567026 -0.166463
0.733253 -0.072632 0.048391
-0.189590 -0.440467 -0.236909
0.576379 -0.215716 0.361721
0.523689 0.488799 0.134174
0.578902 0.502509 -0.088867
-0.246784 0.229096 0.084356
0.619410 -0.486748 0.166244
0.604400 -0.303356 -0.182219
0.288079 0.105481 0.126744
0.559451 0.340270 0.140610
0.077809 -0.052783 0.220873
0.671763 -0.469699 0.169645
0.708429 0.045389 -0.083525
-0.692505 0.510412 0.043070
0.323725 0.047784 -0.211814
-0.359097 -0.040095 0.283524
0.183230 0.121656 0.132688
0.403321 0.418236 0.127161
0.398950 0.391564 -0.215127
-0.806032 0.341261 0.021796
-0.010464 0.636556 0.091218
-0.651589 -0.150931 -0.199318
0.085697 -0.173200 -0.223590
-0.830418 0.454163 -0.094726
0.121485 -0.220166 -0.219760
0.283893 -0.231407 -0.207564
0.164197 0.728320 -0.240986
0.313904 -0.506262 -0.198306
0.135074 0.044462 0.188867
0.424504 -0.450588 0.151026
0.444209 -0.324234 0.354818
0.721149 -0.009069 -0.041823
0.161554 0.323125 0.317470
0.337780 0.260722 -0.216252
-0.387570 -0.618346 -0.246856
-0.736298 0.134256 0.050902
0.284270 0.378660 -0.223203
0.817357 -0.367687 -0.164953
0.554836 0.335897 0.140384
-0.381898 -0.145009 -0.258596
-0.138023 0.536687 -0.258222
0.208375 -0.184039 -0.214317
-0.809749 0.380650 -0.091425
0.292720 0.587167 0.114714
0.370334 0.455449 0.130656
-0.282098 0.537251 0.073853
0.412383 0.429252 0.127543
-0.201814 -0.518914 0.106862
-0.303867 0.411486 0.281078
0.837366 -0.405109 -0.097729
0.615864 0.339967 0.050795
0.398958 -0.211765 0.143020
0.596547 -0.256467 0.364246
-0.604175 0.513834 -0.291812
-0.472047 -0.281945 0.080964
0.335285 -0.121417 0.136032
0.102471 -0.403610 -0.216443
0.344957 0.186392 -0.213817
-0.301307 0.387785 0.281875
-0.188263 0.497896 -0.260909
-0.358447 -0.753787 -0.241243
0.122307 0.386123 0.312975
0.208988 -0.356710 -0.209838
-0.528038 -0.500466 0.082471
-0.791538 0.295314 -0.000009
0.015803 0.347902 -0.242096
-0.229788 0.362930 0.287757
0.505113 0.779312 -0.162464
0.692218 0.002122 0.159028
0.364675 -0.484075 -0.195153
0.034233 -0.541732 -0.217899
-0.281147 0.282149 -0.262179
-0.426220 -0.615714 0.092895
0.026596 -0.517380 0.329160
-0.496987 0.168496 -0.275085
-0.634240 -0.222435 -0.154380
0.345467 0.439748 0.313956
0.037523 -0.063358 0.318302
0.774696 -0.197801 -0.172444
-0.606991 -0.295466 -0.252814
-0.763817 0.202247 -0.019371
0.361720 0.617270 -0.223653
0.747185 -0.413637 0.173735
-0.777113 0.236350 0.035265
0.346298 0.419213 0.173346
-0.503641 -0.677688 -0.173310
-0.597027 -0.143151 0.068237
-0.306553 -0.028938 -0.256053
0.263539 -0.585829 0.142698
0.463166 -0.480598 0.154631
-0.460626 0.194386 0.275161
0.138086 0.254353 0.317516
-0.395491 -0.469025 -0.251272
0.848129 -0.428337 -0.160800
-0.360930 -0.039091 -0.259779
-0.638298 -0.232563 -0.049324
0.151337 -0.022917 0.120016
-0.448118 0.275894 0.272016
-0.477130 0.419925 0.091598
-0.685233 -0.023446 -0.238373
0.060304 -0.120986 -0.226793
0.418247 -0.381027 -0.193872
-0.070783 -0.308083 0.111054
-0.562716 0.258393 0.266032
0.798728 -0.320180 0.122007
-0.827123 0.421077 -0.002244
-0.394412 0.548139 -0.277314
-0.479362 -0.775625 -0.119574
-0.168787 -0.318102 -0.238527
0.530211 0.697299 -0.189671
-0.629334 0.026080 0.061522
-0.373519 0.029926 0.200632
0.367500 -0.404205 0.351247
-0.786720 0.376841 0.040976
-0.046108 -0.246169 -0.231380
-0.682348 0.025418 0.057652
-0.587489 -0.317059 0.073402
0.677242 0.174835 -0.168228
0.158245 0.083359 0.173025
0.643154 -0.491858 -0.174536
0.296459 0.054624 0.128664
-0.024036 0.117840 -0.239109
0.392000 0.405944 0.126647
0.799531 -0.319646 0.107550
0.366125 0.322431 0.126895
0.150132 -0.145750 0.123082
-0.763362 0.308175 -0.298201
0.644292 0.235562 0.069520
-0.116136 0.224545 0.094051
-0.627428 -0.268621 -0.058798
0.246816 0.463364 -0.228125
-0.335541 -0.409228 0.094241
0.139682 0.506551 -0.237088
-0.516799 -0.235176 0.277673
0.068038 -0.067719 0.236908
-0.462792 0.352130 0.166183
-0.806855 0.349068 0.000662
0.418481 0.582778 -0.218605
0.442168 -0.285367 -0.194575
-0.383587 -0.723739 -0.243858
-0.564964 0.092555 -0.278118
0.318220 0.142759 0.127996
0.650183 0.198451 0.140001
0.455655 0.750589 0.122463
0.222659 0.063422 0.123028
-0.584827 0.493650 -0.289875
0.684556 0.086972 0.099129
-0.384952 -0.178907 -0.257949
0.367872 0.481621 0.325859
0.646197 -0.070331 -0.185138
0.349891 0.717429 0.115561
0.256293 0.339237 -0.224242
-0.627006 0.478706 -0.292583
0.414498 0.581455 -0.218863
0.574090 0.510797 -0.051656
-0.419671 -0.631294 -0.248877
0.444196 -0.277096 0.353606
0.463491 0.339811 -0.209066
-0.476549 -0.016305 0.279404
0.646125 -0.031228 -0.186148
-0.213694 -0.190413 0.097555
-0.331848 0.410428 0.279054
-0.643242 -0.216531 -0.043438
-0.767636 0.391512 -0.300655
-0.532052 -0.576918 -0.176643
0.677648 0.134826 -0.002187
0.008564 -0.691297 0.126713
-0.472191 -0.662954 0.090738
-0.074238 -0.443951 0.114290
-0.125852 0.435948 0.092053
0.530398 0.367239 0.137788
0.057621 0.373692 -0.239693
0.719738 -0.163240 -0.177361
0.448214 0.658724 -0.218376
0.645832 -0.357999 0.370467
0.068519 0.091704 0.316592
0.721193 -0.029312 0.044623
0.643994 0.226008 0.115145
-0.069687 -0.459226 0.115016
-0.319673 -0.789883 0.105179
-0.015061 0.587835 -0.250521
0.144269 0.443166 -0.235124
0.381786 -0.300653 0.349635
0.075303 -0.015076 -0.228413
-0.271746 -0.783662 -0.234119
-0.627308 -0.275378 -0.031527
-0.660949 0.311849 0.106893
-0.049962 0.454879 0.092988
0.123984 0.110913 -0.228079
-0.395446 0.118423 0.151892
0.726811 -0.455031 0.173304
-0.264411 -0.367653 0.098388
0.172619 0.395609 0.316420
0.661881 -0.266191 -0.178959
-0.702254 0.068796 0.055079
-0.573441 -0.445724 -0.114336
-0.338243 -0.013262 0.083874
-0.501847 -0.721920 -0.010115
-0.481379 -0.312570 0.081066
0.694201 -0.003453 0.159317
0.099359 0.243993 -0.233302
-0.363707 -0.593162 -0.245754
-0.123395 0.401698 0.202234
0.639556 0.273605 -0.022470
-0.343735 -0.060627 0.139196
-0.512793 -0.658185 -0.118612
-0.610576 0.479237 -0.291392
0.130483 0.024753 0.117263
0.239330 0.419481 0.320698
-0.147291 -0.056614 -0.243666
-0.353996 -0.016028 0.102686
-0.388802 -0.284015 0.087120
-0.514967 0.419534 -0.282850
-0.500567 -0.039062 0.278227
0.191853 0.319601 0.319782
0.677388 0.111106 0.103829
0.372512 0.185998 0.130867
0.487145 0.465186 0.132101
0.392058 -0.484591 -0.193132
-0.331666 -0.107141 0.156569
0.222135 0.526982 -0.231568
0.364634 0.470026 -0.219658
0.598921 0.431313 -0.085698
0.765211 -0.192671 0.080930
-0.070835 -0.452726 0.114765
0.664906 -0.365417 0.187610
-0.512547 -0.279214 0.077925
-0.632826 0.178454 0.255005
-0.409628 0.151668 -0.268248
-0.316987 0.317802 0.261502
0.434490 0.025105 -0.203111
-0.480643 -0.332145 -0.261030
-0.474351 -0.454861 -0.257417
0.204088 0.060854 0.121732
-0.135787 -0.389645 0.108383
0.598047 0.436705 -0.095660
-0.077735 -0.627531 0.118748
0.007873 -0.555496 0.328766
0.079945 0.127534 -0.231735
0.025099 -0.110581 -0.229641
-0.299825 0.105270 -0.259006
0.308625 0.357333 0.207778
0.818577 -0.329197 -0.139847
-0.339909 -0.154069 0.292960
-0.208930 -0.674711 0.110341
0.013161 -0.248778 -0.226967
0.042958 -0.444085 -0.219767
-0.344890 -0.361996 -0.250311
0.307096 -0.293383 0.343973
0.020623 -0.082719 0.317560
-0.500565 0.472722 -0.283160
0.008708 0.262044 -0.240412
0.265104 0.072096 0.125917
-0.464505 -0.799723 -0.240901
0.314367 0.468689 0.324936
0.000331 0.075172 0.312018
0.597860 -0.229690 0.363655
-0.801201 0.359837 -0.131328
0.352555 -0.592588 0.149398
0.642133 0.035528 0.154498
0.549213 0.563243 0.099441
-0.493595 -0.170965 -0.266119
0.835894 -0.398530 -0.103761
-0.322326 -0.537951 0.098515
-0.805135 0.385657 -0.182868
0.747152 -0.131676 0.091963
0.318647 -0.621430 0.146912
-0.184919 0.576911 -0.262693
-0.664897 0.478267 -0.295350
-0.746263 0.169931 0.049255
0.412487 0.470185 -0.216153
0.625666 -0.232968 0.211959
-0.312852 0.476562 0.076051
0.790673 -0.265347 0.008038
-0.075753 0.312774 0.094746
0.234040 0.626110 -0.233241
-0.474261 -0.009507 0.279397
-0.832977 0.443789 -0.011310
0.479366 -0.265733 -0.192352
0.396732 0.038566 -0.206224
-0.564619 -0.054812 0.225766
-0.400001 0.122158 -0.266784
-0.261429 -0.162977 -0.249302
0.373763 0.729334 -0.225647
0.483951 0.089297 0.141520
-0.796030 0.354831 -0.188106
-0.009257 -0.496492 0.182813
-0.230944 0.053004 0.090039
-0.314188 -0.194727 0.268771
-0.476926 0.389979 0.217378
0.082265 0.170880 0.315567
-0.267435 -0.352093 -0.244886
0.343581 0.196013 -0.214165
-0.413436 0.361410 -0.273913
0.499448 -0.225516 0.356332
-0.503372 -0.412431 0.082018
-0.065840 -0.461460 0.115355
-0.574336 -0.369802 0.075721
-0.668087 0.344329 0.075227
-0.266189 -0.734060 0.107667
0.068307 -0.534003 0.332645
-0.505188 0.414430 -0.282002
0.235835 0.231132 0.231917
-0.126025 0.418886 0.168093
-0.741200 0.131917 -0.059262
0.835510 -0.404466 -0.072390
-0.074600 0.629925 0.086686
-0.597513 -0.356674 -0.132953
0.276370 -0.629801 0.144768
0.758267 -0.136737 -0.054604
-0.576474 -0.146267 0.069824
-0.721610 0.191861 -0.292153
0.066346 0.598739 0.097821
0.208015 -0.586758 0.138651
-0.784507 0.386033 0.040902
0.361902 0.298525 0.127199
0.638567 0.243161 0.123537
0.118543 0.543660 -0.239591
-0.061856 0.424674 -0.249761
0.257774 0.706120 0.109098
0.479538 0.038821 0.142493
0.287024 0.327243 -0.221681
0.255577 0.703372 -0.233646
-0.426439 -0.496329 0.089813
0.547302 -0.045091 0.149616
0.112057 0.673995 -0.243413
-0.164812 0.535854 -0.260165
0.368470 0.478318 0.297948
-0.544190 0.103859 -0.276886
0.591336 -0.538184 0.165507
0.433021 0.581102 -0.217496
0.703948 0.070838 -0.125169
0.041047 0.667170 -0.248444
-0.023248 0.672391 -0.253292
-0.548457 -0.503144 -0.245652
-0.457603 -0.496995 -0.255107
0.797216 -0.265638 -0.089820
-0.018988 -0.546558 -0.221677
-0.105389 -0.267406 -0.235180
-0.290708 0.515987 -0.268885
-0.645064 -0.212550 -0.032970
-0.484204 -0.796704 0.044489
-0.126836 0.005437 0.239525
-0.700192 -0.006961 -0.082730
0.361755 0.473256 -0.219952
-0.552117 -0.487664 -0.256841
0.316626 0.217143 -0.216683
0.549868 0.607131 -0.099360
-0.292054 0.303440 0.284719
-0.345278 0.028101 -0.260357
0.718971 -0.005204 -0.025465
-0.114923 0.386886 0.137651
0.001118 -0.723312 -0.215664
-0.364587 0.004370 0.175313
0.255121 0.269380 0.256240
-0.723885 0.425327 -0.298315
-0.582626 0.414113 0.054982
-0.291185 -0.402079 0.097309
0.628863 0.286068 0.085855
-0.776477 0.286327 -0.189458
-0.502913 -0.730187 0.041612
-0.017753 -0.458263 0.146982
-0.289379 -0.455570 0.098815
0.739027 -0.114277 -0.177204
0.823548 -0.345201 -0.146258
0.302137 -0.621508 -0.196209
0.657598 0.247844 -0.184889
-0.318324 0.541917 -0.271575
-0.150451 0.089550 -0.247651
0.384968 0.419605 0.125781
0.502390 0.476405 -0.209722
-0.391775 -0.680681 0.097089
0.574035 -0.395997 -0.182066
0.134156 -0.396601 0.333944
0.276622 0.254520 -0.220576
-0.795352 0.369933 -0.263371
-0.426295 -0.522826 -0.252149
-0.715719 0.364767 -0.296161
0.114303 -0.073560 0.118601
-0.194084 -0.268624 0.101001
0.000274 -0.194964 -0.229294
0.298697 0.607236 -0.228015
0.393327 0.661498 -0.222471
-0.577583 0.373927 0.261975
0.310453 0.575213 -0.226331
0.426365 0.688144 -0.220733
-0.668816 0.310348 0.232508
-0.065802 0.005781 0.308951
0.312548 0.152186 0.127339
-0.067151 -0.536092 -0.225477
-0.622603 0.168036 0.263962
-0.655310 -0.145904 0.064034
0.756892 -0.182632 0.163732
0.004568 0.483819 -0.246410
0.056468 -0.000035 -0.230180
-0.348183 0.450344 0.163608
0.279382 -0.253485 0.135325
0.829639 -0.417531 0.072763
-0.490538 -0.723012 -0.176713
-0.828403 0.418933 0.036839
0.336661 -0.245889 0.139329
0.580988 0.116875 0.147926
-0.685247 0.103630 -0.287221
0.193234 0.080027 -0.222209
-0.508441 0.549499 0.056944
0.159278 0.077792 0.125704
-0.600385 -0.150608 -0.274471
0.673613 -0.334879 -0.176335
0.494144 0.704461 0.126470
0.459838 -0.413275 0.358250
0.724205 -0.254184 -0.174698
0.484005 0.109909 0.140995
0.560531 -0.334604 0.363612
0.588756 0.482731 -0.153015
0.415960 0.713289 0.120511
0.662812 -0.210696 -0.180316
-0.333190 -0.267828 -0.251871
0.694140 0.074226 -0.185336
0.338735 0.369953 -0.218987
-0.779832 0.259761 -0.024304
0.165352 0.118485 0.316298
0.324372 -0.157400 -0.206497
0.513351 0.684223 0.121984
-0.162506 0.633909 -0.262514
-0.312717 0.302634 0.262106
0.302852 0.622077 0.114561
-0.382366 -0.684652 -0.244772
-0.320435 -0.136855 0.114334
-0.552067 -0.514862 -0.140549
0.041486 0.142127 -0.234929
0.683269 -0.251086 0.164874
0.082021 0.371898 0.310387
-0.606902 -0.364147 0.041423
0.557075 -0.510681 -0.180364
0.032196 -0.375882 -0.222308
0.849004 -0.472860 0.017558
-0.677654 0.361468 0.146383
-0.351166 -0.429793 0.093623
0.613050 -0.365243 -0.179995
-0.048763 -0.507717 0.117795
0.259312 0.349795 -0.224292
-0.469072 -0.818131 -0.092496
0.394024 -0.431014 0.353880
-0.256647 0.351437 -0.262162
0.000290 -0.352144 0.322988
-0.658280 0.010961 0.059788
0.576091 -0.200598 -0.186933
-0.094531 -0.550634 -0.227111
-0.689174 0.279558 0.050626
0.414917 -0.128338 -0.200605
-0.424621 0.234140 0.095798
-0.667528 0.343387 0.070810
0.337798 -0.525314 -0.196065
0.501035 0.193380 -0.202553
0.458065 -0.377176 -0.191051
-0.303315 -0.216807 0.199102
0.288286 0.601244 0.114028
0.005073 0.566768 -0.248504
0.219095 0.191265 0.168216
-0.497776 -0.379804 -0.261062
0.750780 -0.089501 -0.144487
0.724245 -0.360998 -0.171952
-0.252070 0.235210 0.083811
-0.323001 -0.583293 0.099630
-0.744323 0.460230 -0.300710
-0.553962 0.442549 0.056353
0.320090 -0.489019 0.144358
0.258279 -0.295880 0.340458
0.472252 0.788492 0.122707
-0.193070 0.635483 0.077858
-0.140721 -0.143569 -0.240951
-0.557863 0.155498 0.269030
0.420390 0.031327 0.138349
0.116309 0.025305 0.280507
-0.491753 -0.043060 0.278976
-0.316389 0.348252 -0.266460
0.358594 0.013333 0.134280
0.496541 -0.574826 -0.183155
0.474608 0.778762 -0.219523
0.778791 -0.181753 -0.171754
-0.512042 -0.647277 -0.176935
-0.652758 0.031418 -0.282985
-0.558004 -0.513746 -0.055410
-0.075671 -0.416164 -0.229181
0.120021 0.448587 0.254465
-0.275984 -0.183958 0.092822
-0.374794 0.429302 -0.272824
0.768334 -0.199347 0.062358
-0.076056 0.313173 -0.247939
-0.115713 0.601076 -0.258240
0.241465 -0.584707 0.141051
0.799513 -0.257163 -0.161091
-0.372548 0.566187 -0.276174
0.292746 0.343332 0.299437
-0.578896 0.457852 0.054132
0.184452 0.568007 0.282339
-0.088243 -0.650055 -0.224097
-0.461722 0.087481 -0.270419
0.443160 0.246907 0.134482
0.212136 0.419821 0.318695
-0.486774 -0.738613 -0.166590
0.224355 -0.460461 0.342197
-0.188247 -0.533755 0.108238
-0.025250 -0.436482 0.166801
0.148221 -0.646254 0.135795
-0.606384 -0.316232 -0.172642
0.336983 -0.467645 -0.197605
0.065264 -0.353053 0.327775
-0.057862 0.043053 0.308576
0.388632 0.496054 0.142214
0.237139 0.021266 0.125172
-0.203741 -0.318648 -0.241075
0.614394 0.346275 0.045907
-0.271195 -0.015029 -0.253818
-0.346901 -0.514938 -0.246530
-0.626759 0.173698 0.183579
-0.337592 -0.081828 0.137393
-0.756411 0.177954 -0.026996
0.682431 0.014497 -0.184660
-0.623232 -0.249047 -0.206591
-0.543799 -0.278847 -0.267029
0.475610 0.732954 -0.218273
0.346324 0.121821 -0.212058
-0.039598 0.568496 -0.251823
-0.411659 -0.397182 -0.254302
-0.334539 0.185105 -0.263601
0.581753 0.358112 -0.200865
0.609412 -0.195847 0.298405
0.140809 0.492785 0.299648
-0.365515 -0.002306 0.218101
-0.108163 -0.189425 0.105266
0.232154 -0.386257 0.340863
-0.817422 0.414305 -0.120034
-0.734309 0.469384 0.042442
0.051371 -0.563552 0.126570
0.199119 0.255493 0.321961
0.587623 -0.284456 0.364311
0.407442 0.613955 -0.220215
0.188910 -0.351644 -0.211440
-0.098844 0.329188 0.142415
0.621243 -0.117229 0.156889
-0.085269 0.543735 -0.254536
0.675909 0.136630 0.016387
0.191703 -0.541502 0.136293
0.538024 0.654580 -0.124165
0.048132 0.289473 0.310019
0.379511 -0.375980 -0.196841
-0.147034 0.473786 0.250051
-0.018392 -0.318220 0.115156
-0.617046 0.167975 0.061072
-0.441774 -0.663984 -0.249658
-0.126979 -0.596197 -0.228320
0.090287 0.009861 -0.227955
0.565589 0.089431 0.147502
-0.078684 -0.032147 0.103389
0.723781 -0.159253 -0.177167
0.503160 0.395808 0.135057
0.494807 0.814522 -0.157892
0.652819 -0.171616 0.160601
0.182458 0.244313 0.321027
0.445457 0.220039 0.135340
-0.648678 0.238135 0.238269
0.502414 -0.396153 0.360932
0.423029 0.162093 0.135184
-0.413717 -0.126177 -0.261412
0.060290 -0.346336 -0.221007
0.032880 0.153131 0.312402
0.282561 0.318191 0.255041
-0.193719 -0.718432 -0.230074
-0.245086 -0.058941 0.091877
-0.781100 0.430740 -0.302649
-0.139681 0.461475 0.191663
-0.193272 0.411766 0.289180
-0.400168 0.296488 -0.271273
0.748118 -0.083566 -0.129716
0.324433 0.583714 -0.225525
0.560366 0.540795 0.027120
-0.223209 -0.411356 -0.240122
0.735069 -0.089923 0.095303
0.344522 0.144201 -0.212765
0.003621 -0.441353 -0.222721
-0.081699 0.035710 -0.241228
-0.093412 -0.286725 0.108847
0.354426 -0.616497 -0.192504
0.587098 0.475981 -0.098849
-0.191053 -0.698627 -0.230387
-0.373771 0.051527 0.111481
0.210270 0.257482 -0.225517
0.595585 0.439984 -0.072487
-0.195878 -0.425930 0.104909
-0.208477 -0.111045 0.095899
-0.044025 -0.603973 0.120614
-0.338611 -0.246797 0.089844
-0.536087 -0.501872 -0.260736
0.505055 0.727665 0.060695
-0.583525 -0.331689 -0.268584
0.725967 -0.008656 -0.116580
0.171367 0.216267 -0.227311
-0.425789 -0.300798 0.084840
-0.383219 0.343565 0.071413
0.000388 0.238948 0.307816
-0.442061 -0.807291 0.096653
0.486499 0.003684 0.143905
-0.389258 -0.058900 0.286898
0.623385 0.288094 -0.196015
0.478389 -0.077959 -0.197245
-0.646581 -0.205396 -0.040783
-0.401396 -0.209971 0.289887
-0.814034 0.404146 -0.127643
0.006297 -0.683334 -0.216311
0.552265 -0.187770 0.153644
-0.377725 0.028737 0.269454
-0.768508 0.255213 -0.176255
0.027884 -0.429864 -0.221237
-0.244086 -0.671439 -0.234973
-0.335200 0.407557 0.151103
-0.500756 -0.260925 0.145474
-0.087845 0.247931 0.095525
0.450722 0.211859 -0.206716
-0.005893 0.592295 0.092690
-0.606364 0.102481 0.181148
-0.273228 -0.640063 -0.237916
0.616520 0.359030 -0.041180
0.820536 -0.409680 0.176857
-0.473257 0.145048 0.275502
0.054838 -0.578972 -0.215432
0.519266 -0.099350 0.148954
-0.304789 0.599153 0.070600
-0.145268 0.048633 -0.246220
0.632154 0.304481 -0.043234
-0.789206 0.286763 0.001467
-0.629567 -0.256588 -0.078182
-0.103319 -0.449801 -0.230345
-0.484327 -0.739555 -0.199587
-0.367062 0.027662 0.112561
-0.712540 0.129814 -0.289895
-0.663324 0.322449 0.097245
-0.163344 -0.610510 0.112034
0.396033 0.132634 0.133961
0.498413 0.708338 -0.215969
0.624872 0.306896 0.056677
-0.304103 0.280934 0.225021
-0.696494 0.085916 0.055062
0.051169 0.544860 -0.244561
0.001098 -0.634483 -0.217947
-0.229270 -0.355350 -0.242004
0.739932 -0.073297 -0.049908
-0.170631 -0.561307 -0.232416
-0.103268 0.337385 0.174157
-0.338343 -0.081250 0.146283
0.009358 -0.400822 -0.223341
0.035375 -0.062112 0.318112
-0.451073 -0.189195 0.285712
-0.482339 -0.774356 -0.079933
0.636346 -0.489065 -0.175107
-0.500997 -0.350599 0.080605
-0.295765 0.315515 -0.264107
0.726528 -0.038913 0.005135
0.274590 0.332439 -0.222726
0.103439 -0.021318 0.129545
0.314388 0.248217 0.125007
0.091171 -0.178569 -0.223051
-0.024571 -0.468512 0.294359
0.073487 0.125142 -0.232147
0.140898 0.431263 -0.235066
0.626301 -0.243181 0.246295
-0.319270 -0.370106 0.094429
-0.452948 0.469302 -0.279581
0.509417 -0.491901 -0.184340
0.713615 -0.010638 0.079037
0.272356 0.293142 0.211444
0.115392 -0.253642 -0.219347
0.131225 -0.428446 -0.213697
0.691091 0.057474 0.127091
0.203867 0.308557 0.320947
-0.498600 -0.729869 -0.025084
-0.218650 -0.251049 0.098749
-0.084503 -0.121127 0.105247
-0.561114 -0.476884 -0.166948
-0.318044 0.213484 -0.263121
-0.468655 -0.344311 -0.259839
-0.641123 0.398597 -0.291561
-0.565751 -0.439837 -0.256158
-0.539231 -0.113650 0.094442
-0.390802 0.514011 0.066480
-0.041874 -0.700418 0.123249
-0.356889 -0.013221 0.134425
0.798790 -0.360863 0.176163
-0.213222 0.264258 0.085913
0.584105 0.180150 0.146530
0.678625 0.097841 0.142187
-0.560346 0.364044 -0.284752
-0.535078 0.334914 0.266093
-0.475530 0.114744 0.276113
0.592874 0.470986 -0.202949
-0.332402 0.379499 0.229474
-0.352475 -0.526489 0.096010
0.567255 0.021876 -0.193294
0.015531 -0.199640 -0.228055
0.499748 -0.269270 0.357478
-0.298859 -0.584010 0.101418
0.111720 -0.288367 -0.218725
0.641507 0.271794 -0.044223
0.327900 -0.537044 -0.196489
0.624869 0.358209 -0.164110
0.043696 0.426969 -0.242082
-0.057552 0.333154 -0.247096
0.707490 0.025373 0.016842
0.350925 0.525053 0.120577
0.537220 0.169452 -0.199286
-0.477645 0.402446 0.174619
-0.092106 -0.061560 0.103160
0.661522 -0.390793 0.166868
0.360881 0.642265 -0.224356
0.489285 0.782479 0.063658
-0.653010 0.139911 0.056863
-0.487795 -0.110479 -0.267247
0.137738 -0.223389 -0.218486
-0.047114 0.386305 0.094957
0.644650 0.109821 0.152775
0.390140 -0.164367 0.141156
-0.477748 -0.783906 -0.108381
0.834234 -0.402070 -0.063378
-0.358987 0.567343 -0.275210
-0.271677 0.513043 0.075239
0.148675 0.220590 -0.229085
0.413131 0.751022 -0.223318
0.315289 0.381788 0.287946
0.782591 -0.362962 -0.167624
0.432185 0.419031 -0.213396
-0.025954 0.579142 -0.251096
-0.477578 0.427595 0.065367
-0.287351 -0.407804 0.097737
-0.538439 0.504575 -0.286754
-0.322298 0.549905 0.070581
0.057566 -0.670762 0.129778
-0.372976 0.534938 -0.275403
-0.278490 -0.532641 0.101593
0.105732 0.711041 0.097824
0.081678 -0.247107 -0.221987
0.277052 -0.098095 0.131163
0.748003 -0.099170 -0.060811
-0.293864 -0.332010 0.095313
0.740424 -0.047973 -0.166356
-0.579098 0.215941 0.265921
-0.621226 -0.242689 -0.264336
0.832238 -0.422727 0.055753
0.661396 0.157347 0.147064
0.487547 -0.175857 -0.194060
0.614093 0.362937 -0.198618
-0.186169 -0.462825 -0.236084
0.765028 -0.139381 -0.145648
-0.426303 0.219074 0.186117
-0.357603 0.470456 0.219746
-0.321163 0.083056 -0.260000
-0.250059 -0.367075 0.099425
0.380769 0.552850 0.122051
-0.673720 0.125892 -0.286948
-0.518551 -0.622804 -0.183657
0.368384 -0.176858 0.139882
0.258700 0.274041 0.245188
0.243052 -0.220775 0.131821
0.211809 -0.388947 0.339441
-0.104822 0.330943 0.225420
0.567132 0.533741 -0.045002
-0.460997 -0.840980 -0.116469
0.147726 0.060072 0.144281
0.358477 -0.245882 0.344357
0.811906 -0.405686 -0.164377
0.216725 0.021836 0.123661
-0.390295 -0.826239 -0.241718
0.245941 -0.540159 -0.202418
0.566238 0.219281 0.144215
0.254157 -0.570191 -0.201044
-0.614208 -0.327450 -0.005856
0.384158 0.480131 0.130641
0.372765 -0.512856 -0.193821
0.319469 0.390696 0.297169
0.490548 0.793837 -0.004354
0.637719 0.302113 -0.117334
0.520745 0.695352 -0.037908
-0.410970 0.561585 0.063780
-0.404360 0.370272 -0.273475
-0.156613 0.335501 0.293826
-0.629136 -0.250873 -0.109302
-0.085412 -0.214816 0.107586
-0.557817 -0.503765 -0.101204
-0.379447 0.038219 0.254723
0.210974 0.214594 0.323881
0.407492 -0.072681 0.140074
-0.564767 -0.061693 0.257618
-0.355852 -0.024237 0.166124
-0.718364 0.062209 -0.105170
-0.580278 -0.426888 -0.091842
-0.263897 -0.065835 0.090675
-0.121885 0.408252 0.151164
0.153044 0.555525 0.105287
-0.816381 0.418809 -0.155200
0.536370 0.307139 0.139769
0.743676 -0.109295 0.048294
0.026811 -0.194864 0.115302
-0.091905 0.147911 0.097796
-0.658466 -0.018669 -0.282117
0.325061 -0.550985 0.146313
0.476701 0.229719 -0.205270
-0.672226 0.324208 0.224520
0.515980 0.712754 -0.040613
0.312399 0.459306 -0.223212
0.246980 0.258189 0.277600
0.573217 0.542614 -0.175358
-0.144604 0.450243 -0.256485
-0.331174 0.380848 0.205064
-0.195820 -0.107625 0.096739
0.139812 0.403632 -0.234436
0.765552 -0.485740 0.176933
-0.787276 0.284987 -0.020122
0.217853 0.530132 -0.231963
-0.004992 -0.517386 0.208128
-0.242028 0.175342 0.086085
-0.353096 -0.352142 -0.251165
0.641609 -0.289158 0.212296
0.642557 0.299351 -0.178725
-0.420057 0.213874 0.113886
-0.625347 0.153011 0.264147
0.225254 0.660173 -0.234759
0.498435 -0.533942 -0.184066
-0.102827 -0.292313 -0.234353
0.041552 -0.210518 0.116785
-0.577440 0.525399 0.052504
-0.312071 0.595643 -0.272497
-0.454595 0.433233 -0.278775
-0.591223 -0.395319 -0.061914
0.617586 0.356076 -0.044618
-0.389143 -0.544504 0.093785
-0.067821 0.322533 -0.247576
-0.151260 -0.479276 0.109550
0.031856 0.451379 -0.243577
-0.395663 0.388565 -0.273307
0.838902 -0.427026 -0.026685
0.749826 -0.100756 -0.081597
-0.600193 -0.325214 -0.227757
-0.441520 -0.648036 -0.250049
-0.103619 0.458304 0.088966
-0.145609 -0.736181 -0.226091
0.468159 0.076350 -0.201958
0.467146 -0.457408 0.154327
0.834702 -0.428002 0.041146
0.554477 0.258972 -0.200319
-0.530056 0.495420 0.056748
-0.564234 -0.293548 -0.268150
0.178211 0.115292 0.149274
-0.412611 0.182206 0.137392
0.577420 0.463807 0.100141
-0.072554 0.112825 0.100115
-0.594184 0.083120 0.062634
-0.337252 0.389698 0.259034
0.214724 0.711239 0.105810
-0.600978 -0.198367 -0.273288
0.703816 -0.055232 -0.181302
0.556131 -0.028450 0.149836
-0.365700 -0.459645 0.093324
-0.338596 -0.109427 0.271369
0.680156 -0.081870 -0.182352
-0.612375 -0.310425 -0.106890
-0.144558 0.201780 -0.250101
0.202306 -0.287932 -0.212094
-0.677039 0.389067 -0.293950
-0.423979 0.508037 0.064201
-0.114244 0.395445 0.090539
0.682143 0.111549 0.029897
0.529897 0.609387 -0.211120
0.057526 0.563487 0.098079
0.268411 -0.095508 -0.212189
0.801911 -0.292766 -0.044194
0.803279 -0.297766 -0.043383
0.352532 0.569002 0.119566
-0.649957 -0.210348 0.031675
0.123987 0.130670 -0.228586
0.026045 0.287677 0.298532
0.034735 -0.330574 0.119368
-0.569614 -0.498837 0.056280
0.368349 0.339452 0.126621
0.266611 0.060959 -0.216339
0.573395 0.342314 -0.201073
0.215726 -0.119980 -0.215424
0.650910 0.233332 -0.021129
-0.475589 -0.174314 -0.264712
-0.498643 -0.694788 -0.175408
-0.222331 -0.020200 0.092550
-0.411258 -0.267038 -0.257615
0.398994 0.699846 -0.223040
0.001862 -0.540383 0.203284
0.095251 -0.036529 0.125783
-0.174168 0.333129 -0.255645
-0.278783 -0.391885 -0.244696
0.191180 -0.132524 -0.216901
-0.307359 -0.754193 -0.237487
0.124756 -0.538690 -0.211341
0.246692 0.261153 0.299813
-0.597155 -0.368427 -0.087798
-0.529491 0.114822 -0.276089
-0.432360 -0.277789 -0.258886
-0.374909 -0.330845 0.089342
0.203450 -0.261940 0.129975
-0.569883 -0.218755 0.072168
0.327404 0.149195 -0.214148
0.584998 0.401977 0.140899
0.567731 0.517011 0.017920
-0.537958 -0.616701 0.084728
0.290163 0.054914 -0.214457
-0.678561 0.368531 0.129715
-0.593443 0.044632 0.234387
-0.533295 -0.589338 -0.104355
-0.438379 0.280378 -0.273661
-0.403829 0.555117 -0.278183
-0.490182 -0.205982 -0.264969
-0.181215 0.186201 0.090264
0.497398 -0.015004 -0.197468
0.575443 0.204049 -0.197372
-0.466932 0.348860 0.242964
0.719801 -0.047541 0.144159
0.647934 -0.320537 0.251534
0.625759 -0.193591 -0.183471
-0.026428 -0.681347 0.123892
0.005412 -0.563994 0.123212
0.267997 -0.189314 0.132842
0.041773 0.080717 -0.233331
0.600836 0.391682 0.055859
-0.569112 -0.004597 -0.275928
0.641292 -0.030784 -0.186513
-0.706756 -0.010620 0.032447
0.518827 -0.114953 0.149322
0.237993 0.220664 0.140464
0.208041 0.745930 -0.238224
0.124271 0.665519 0.100352
-0.299397 -0.779023 -0.236266
0.021086 0.466743 -0.244761
-0.568281 -0.016057 0.114445
-0.487004 -0.648745 -0.253366
-0.220090 -0.167075 0.096486
0.297728 0.485053 -0.224949
0.338054 -0.189538 -0.204669
0.180272 -0.257718 -0.214486
-0.526984 0.133248 0.271866
0.396465 0.187958 0.132572
0.664486 0.219102 -0.165518
-0.088025 0.450622 -0.252346
-0.168483 -0.329535 -0.238211
-0.307225 0.449086 0.279867
0.559568 0.554792 -0.021022
-0.033703 0.086732 -0.239019
0.061438 -0.505705 0.331415
-0.537172 -0.484321 0.081386
0.151307 0.175313 -0.227730
-0.238655 0.098269 -0.254341
-0.298835 0.176079 0.081901
0.728720 -0.261068 -0.174190
0.689448 0.088347 0.019104
-0.610105 -0.346304 0.013138
-0.201356 -0.547056 0.107618
0.151695 0.067767 0.148156
-0.434171 0.273145 0.072594
-0.341110 0.068278 0.081570
0.273798 0.189645 0.123536
0.476128 0.821165 0.096451
0.703917 0.032464 0.040442
0.407736 -0.407436 -0.193964
0.473047 -0.454842 0.154694
0.297906 -0.333842 0.344338
0.405986 0.309382 0.130152
0.207983 -0.315765 -0.210963
-0.564024 -0.031350 0.115780
-0.423152 0.196873 0.233925
0.198221 0.217329 -0.225369
-0.465944 0.362056 -0.277779
-0.164929 -0.655618 0.113077
0.635801 0.296862 -0.065692
0.418687 0.533895 0.125318
0.707747 -0.172374 0.164648
-0.800069 0.342505 -0.073887
-0.596961 -0.189737 -0.273215
-0.635449 -0.000618 0.061760
0.737098 -0.080292 0.023111
0.279339 -0.572209 0.143506
0.306333 -0.180310 -0.207231
0.303160 0.414627 0.325502
0.600505 0.061729 0.150773
-0.400469 0.201106 0.073807
-0.310870 -0.500019 -0.244272
0.195203 -0.653016 -0.203240
0.275087 0.634855 -0.230456
-0.027270 -0.422770 0.138388
0.845551 -0.433174 -0.100932
0.452109 -0.256223 0.353650
0.023723 0.291452 -0.240066
0.767339 -0.220797 0.169739
-0.326298 0.362476 0.210275
-0.432388 -0.844716 -0.244329
-0.482310 -0.499409 -0.256857
0.345856 0.205744 -0.214248
-0.530457 -0.460088 0.081256
0.046352 0.295596 0.117539
0.168321 0.533999 0.249116
-0.043972 -0.715663 -0.219166
-0.463877 -0.812425 -0.195739
0.719698 0.007687 -0.091965
-0.514371 -0.673423 -0.029125
-0.100790 -0.220434 0.106603
0.316275 0.152682 0.127599
-0.738114 0.139722 -0.139601
-0.383313 0.064606 0.199717
-0.087414 0.377402 -0.250421
0.522929 0.390862 -0.206019
0.518607 0.468472 0.134324
0.242866 0.282872 -0.223779
0.059269 -0.182630 -0.225285
-0.150319 0.271238 0.090346
-0.487733 0.461139 -0.281921
-0.138089 0.579274 -0.259321
0.724328 -0.239735 -0.175060
-0.630216 -0.281986 0.040964
-0.598959 0.180703 -0.282874
0.238880 -0.560014 0.140227
-0.310185 0.572205 0.070896
-0.571934 -0.009719 0.142507
0.722528 -0.002324 -0.091737
0.343372 0.098815 -0.211684
-0.637992 0.233008 0.098466
0.208446 0.685316 0.106015
0.287459 0.325914 0.248501
0.416806 -0.409417 -0.193248
-0.752572 0.222306 -0.276027
0.249132 0.698398 0.108662
-0.105199 0.006166 0.306053
0.153187 -0.521157 -0.209706
-0.680612 -0.074346 -0.089303
0.361652 0.404948 -0.218205
0.430334 0.557177 -0.217079
-0.307449 0.253677 -0.263376
0.548104 0.615630 -0.109208
-0.455022 0.317216 0.198747
0.628907 0.134583 0.150985
-0.356985 0.291481 -0.267979
-0.011007 0.533185 -0.248820
-0.560654 -0.278306 0.074374
-0.476994 -0.779915 -0.136967
0.605901 0.419355 -0.139958
0.003044 0.236825 0.236094
-0.198068 0.312153 -0.256858
0.027752 -0.002672 -0.232217
-0.479197 0.332374 -0.277989
-0.541150 0.341190 -0.282757
-0.616995 -0.307635 -0.048917
-0.373381 0.277676 -0.268826
0.448288 -0.363313 -0.192124
0.435283 -0.192650 -0.197460
-0.410752 0.328568 0.069780
0.167492 -0.562810 0.135065
-0.158014 -0.056803 0.098206
-0.380719 0.415039 0.069761
-0.309646 -0.177212 0.124591
0.207549 0.138573 0.119990
0.461860 0.322708 0.133906
-0.384949 0.514154 -0.275747
0.703705 0.049114 -0.027995
-0.566695 -0.462368 -0.144889
0.342828 0.757075 -0.228628
0.530916 -0.156914 0.151286
-0.636894 -0.217654 -0.134745
-0.435358 0.116333 0.279018
-0.227021 0.374785 0.287655
0.404296 0.122513 -0.207826
0.848039 -0.450093 -0.065805
0.413361 -0.462534 -0.192137
0.179652 0.596221 0.106192
0.603561 0.268321 0.145692
0.590107 0.367072 0.142170
0.067512 0.337431 0.310208
0.398701 -0.287535 0.350539
-0.551938 -0.533379 -0.062800
0.817443 -0.349570 -0.034981
0.415031 -0.021955 0.139324
-0.402716 -0.407940 -0.253370
-0.094205 -0.266063 0.108258
-0.101357 -0.329103 -0.233300
-0.509686 -0.358693 0.080175
0.038436 0.235130 0.310703
0.628606 -0.508464 0.167476
0.030938 -0.714360 -0.213708
0.314947 0.549828 0.117303
0.166161 -0.286236 -0.214788
-0.339942 0.417164 0.181576
0.378256 0.496798 0.304359
0.183884 -0.319248 0.335604
-0.477995 -0.759625 -0.209132
0.290298 -0.194068 0.134599
-0.559643 0.449453 0.055759
0.557487 -0.543152 0.163153
0.546057 0.595659 0.007744
-0.120982 0.391682 0.208791
-0.646029 0.243416 0.175417
0.447479 -0.140007 0.144735
-0.658231 0.273636 0.230171
0.614429 0.050158 -0.190562
0.482443 0.545252 -0.212952
-0.376185 0.024874 0.262751
0.611461 -0.200246 -0.184349
-0.412632 0.159840 0.233964
-0.151071 -0.568005 -0.230810
-0.265596 -0.394298 0.098985
0.779412 -0.270597 -0.170229
0.524845 0.653565 0.079830
0.713434 -0.384752 0.170518
-0.063608 -0.463638 0.115575
-0.001367 0.282191 0.100985
-0.283074 0.061406 0.086001
-0.416865 -0.823054 -0.243747
-0.429435 0.166625 0.278160
0.688347 -0.163271 -0.179661
0.623519 0.075937 -0.190557
0.731896 -0.087601 0.133374
0.133359 0.197404 0.318632
0.685888 0.073340 0.137611
0.043669 0.360627 0.102273
-0.130113 0.008777 0.298226
0.044845 -0.017036 -0.230595
-0.107439 0.415114 -0.252858
-0.071028 -0.254730 0.109666
0.162035 0.002255 0.120154
-0.173841 0.291288 0.088106
-0.440295 0.294760 0.072317
-0.054723 0.226563 0.098502
0.250905 -0.491716 -0.203298
0.312156 -0.322547 0.345093
-0.789338 0.345965 -0.251310
0.208912 0.394342 -0.229131
0.362037 -0.282469 0.347721
0.413450 0.537197 -0.217804
0.320318 0.448643 -0.222358
-0.425405 -0.001488 -0.265471
-0.294107 0.273240 0.079753
0.205004 -0.300977 -0.211562
0.198082 0.719325 0.104382
-0.566299 -0.475650 -0.093719
-0.810861 0.401483 -0.164236
-0.470602 -0.218118 -0.263222
0.324257 -0.237229 0.138197
0.220260 0.145106 0.120754
-0.122194 -0.442459 -0.231917
0.015122 0.569761 -0.247844
0.416692 0.370195 0.129375
-0.316953 -0.314245 -0.249489
0.420826 0.043464 -0.204584
0.496939 -0.581740 -0.182948
-0.655800 0.158370 -0.286468
0.046577 0.407362 0.101286
-0.771170 0.224802 -0.005051
-0.438010 0.487368 0.063703
-0.405890 -0.815525 0.099517
-0.388032 0.077657 0.215040
-0.622679 -0.243970 -0.236818
-0.191542 0.356300 -0.257514
-0.354404 -0.205508 -0.255027
-0.802949 0.339457 -0.017139
-0.419339 0.327211 0.069185
-0.594606 -0.412280 0.062315
0.349059 0.289773 0.126482
0.074655 0.063983 -0.230490
0.678501 0.148398 -0.073528
-0.182068 -0.187089 0.099788
-0.440567 0.000129 0.281620
0.697762 0.091205 -0.119133
-0.332060 -0.713492 -0.240343
0.412950 0.067463 -0.205778
-0.509675 0.526030 -0.285196
-0.065602 -0.404051 -0.228754
0.816348 -0.341869 -0.051537
0.528367 -0.463058 0.158961
0.082393 -0.226860 0.120199
0.146575 0.075786 0.257747
-0.344301 -0.483528 -0.247146
0.341416 -0.014189 -0.208925
-0.284689 -0.395112 -0.245046
0.088317 0.316527 -0.235974
0.647361 -0.354942 -0.177744
0.082965 -0.418927 0.330764
-0.423982 0.153070 -0.269336
-0.086467 0.030764 0.306794
0.303742 0.360188 0.281690
0.663054 0.184343 0.005760
-0.417665 -0.812751 -0.244071
-0.409397 0.024770 0.283272
0.519197 0.697165 -0.022253
0.297833 0.233030 -0.218469
-0.246754 -0.074337 -0.250503
-0.153715 0.549844 0.082942
-0.660522 -0.150535 -0.065716
-0.750264 0.190154 -0.172615
0.338507 0.031267 0.132347
-0.466196 0.352810 0.214819
-0.736873 0.146932 -0.189424
0.181711 -0.523501 0.135098
0.259850 -0.283597 -0.207987
-0.497504 -0.109019 0.280248
-0.210430 0.069410 0.091122
0.390550 0.472069 -0.217810
0.631567 0.227331 0.148798
-0.243618 -0.327225 0.098874
-0.091677 0.602048 0.086150
-0.251222 -0.022291 -0.252167
0.278829 -0.424555 -0.202976
-0.737008 0.103149 0.001040
0.370937 -0.386571 0.351046
0.416206 0.768796 0.119104
0.197909 0.588244 -0.234917
0.078884 0.090382 0.317386
-0.340402 -0.574929 -0.244513
0.356436 0.381035 0.124679
0.271702 0.055955 0.126815
-0.301627 0.110036 0.083392
0.454815 -0.065884 0.143369
-0.448024 0.251498 -0.273626
0.104668 0.167810 -0.230956
0.308660 0.408856 0.326054
-0.226916 -0.276582 -0.243855
-0.282535 -0.349099 -0.246070
-0.032551 -0.418958 0.201968
0.096204 0.003027 0.320899
0.777119 -0.190921 -0.106979
-0.032935 0.219789 -0.242380
0.012544 -0.637423 -0.217032
-0.800776 0.390985 -0.271821
0.821864 -0.387749 0.062360
-0.596783 0.161955 0.266011
-0.621791 0.154117 0.192594
0.103822 -0.020978 0.127342
0.577472 0.181079 0.146020
-0.070334 -0.313051 0.111215
0.239422 -0.345441 -0.207896
0.452208 0.652724 -0.217929
-0.623896 -0.259500 -0.151540
-0.057594 -0.061629 0.105692
0.185441 -0.319439 0.335723
-0.634044 -0.013615 0.062196
-0.044178 0.201706 -0.242739
0.127390 -0.129212 0.120990
-0.333711 0.391939 0.073801
0.295580 -0.560428 -0.198258
-0.011658 -0.495041 0.212937
0.276374 0.592166 0.113388
-0.020506 -0.677395 -0.218429
-0.662195 0.345201 -0.291735
0.651275 -0.361988 0.370968
0.487460 0.133225 -0.202004
0.373989 0.719007 -0.225366
-0.609915 0.114118 0.184852
0.574706 0.479189 0.075045
0.752261 -0.334624 -0.170575
-0.743929 0.149071 -0.091762
0.613550 0.206703 0.148007
0.195418 0.301102 0.320519
-0.151538 -0.435175 -0.234255
0.096746 0.184231 -0.231959
-0.604666 -0.324966 -0.161074
0.358162 -0.272232 0.347174
-0.533542 -0.501449 -0.260560
0.398532 -0.320373 0.351370
-0.215596 0.307039 -0.258012
0.252164 0.620716 -0.231773
-0.806091 0.340842 0.024486
0.739317 -0.082214 -0.002219
-0.137812 0.353651 0.294738
-0.528645 -0.047179 -0.271867
0.625564 -0.239634 0.242192
-0.569068 0.436002 0.055414
0.211024 -0.577748 -0.204013
0.294556 0.445571 -0.224168
0.500934 -0.334627 -0.189001
0.203291 -0.601799 0.138691
0.692926 -0.271705 0.166112
0.234670 -0.579587 0.140421
-0.265939 -0.321557 0.097092
-0.364494 -0.780059 0.101641
-0.451322 -0.140547 0.284444
0.479382 -0.493385 0.156148
0.675263 -0.072667 -0.182947
-0.033945 -0.429182 0.267091
-0.416021 0.209136 0.073144
0.098396 0.632594 0.099301
0.182371 0.431608 0.316211
0.266902 0.594641 0.112630
-0.418447 0.210532 0.103875
0.269268 0.340038 0.324933
0.518130 0.580228 0.131419
-0.205034 -0.225535 -0.243561
0.760768 -0.364797 -0.169177
0.091202 0.414787 0.104367
-0.533051 0.347819 -0.282334
-0.321839 0.363894 0.136634
0.146724 0.719325 0.100617
0.160260 -0.545612 -0.208560
0.528687 -0.000376 -0.195550
0.537966 0.494977 0.135062
0.403623 0.647598 -0.221359
-0.330848 0.044560 0.082931
-0.106094 -0.230661 0.106477
0.389928 0.724767 -0.224345
-0.309573 -0.507894 -0.243975
0.490024 -0.339371 0.358565
0.551700 0.508903 -0.206941
-0.755203 0.391329 -0.299738
-0.227858 -0.287032 0.098997
-0.562490 0.195513 -0.280581
-0.355563 0.602554 0.066790
0.219441 0.532654 0.316334
-0.375179 -0.588530 0.095939
0.647103 -0.470471 0.167857
-0.365664 0.026736 0.095373
0.482589 0.492076 0.131077
-0.460827 0.059633 0.278606
0.658314 -0.352708 0.232763
-0.590201 0.165647 -0.281846
-0.000557 -0.533570 0.210608
-0.604042 -0.321411 -0.185821
-0.021318 -0.473936 0.268435
0.157556 0.018603 -0.223247
0.017193 0.105435 -0.235768
-0.658404 -0.165610 -0.032921
0.020796 0.548948 0.095760
0.285854 -0.160430 0.133409
0.561321 0.522646 -0.206589
-0.031253 -0.356528 -0.227456
0.674285 -0.065814 0.159458
0.621605 -0.219496 0.215495
-0.532327 -0.153043 0.159399
-0.821957 0.395019 0.031662
-0.342371 -0.100558 0.290386
-0.453480 0.001853 -0.267616
-0.270268 -0.057629 0.089997
0.068912 0.669635 0.096188
0.491228 0.809071 -0.080219
-0.580299 0.021131 0.065244
0.539603 -0.281975 -0.187518
0.313851 0.488056 -0.223844
-0.301831 -0.600853 0.101633
-0.469273 -0.806146 -0.141037
0.800528 -0.296465 -0.007320
-0.676103 0.332646 0.255812
0.130488 0.643217 -0.241272
0.347514 0.431246 0.236320
-0.426869 -0.390519 -0.255588
0.527772 -0.273255 -0.188610
0.253142 0.066438 0.125185
-0.093588 0.301341 0.093732
-0.079186 0.213527 -0.245610
0.317997 0.391761 0.320751
0.299253 0.677658 0.112870
0.586649 -0.012842 0.151672
-0.127784 -0.702229 0.116997
0.476603 0.335522 -0.207995
0.394716 0.749541 -0.224630
-0.241808 -0.222406 0.096315
0.608851 0.369356 0.030536
-0.024955 -0.469897 0.306135
0.644028 -0.317214 0.296394
-0.092559 -0.595502 0.116839
0.731511 -0.439564 0.173251
0.401341 -0.220227 -0.199241
-0.602007 -0.102134 0.066818
-0.576093 -0.448823 0.077621
0.718252 -0.247169 -0.175314
-0.008918 -0.496595 0.120431
0.580191 0.100633 -0.194368
0.581708 -0.316249 0.364693
-0.482744 0.424884 -0.280625
-0.514748 -0.227519 0.213652
-0.014856 0.427230 -0.246381
-0.342616 0.496046 0.070474
0.699019 -0.272021 -0.176086
0.800666 -0.445499 0.178474
0.673664 -0.145411 -0.181196
0.091961 -0.586496 -0.212517
-0.464484 -0.149585 0.283711
0.083062 0.440544 0.103108
0.126481 0.344062 -0.233883
-0.463114 -0.516849 0.087651
0.324146 -0.199348 -0.205436
-0.123218 0.010747 0.232176
0.199758 0.616486 0.107146
0.785750 -0.333076 0.174493
-0.350032 -0.019038 0.083158
-0.553479 0.144586 -0.278612
0.286857 -0.085999 0.131572
0.277794 -0.430655 -0.202895
0.668436 0.189834 -0.099389
0.557938 -0.047172 0.150449
-0.331672 -0.105155 0.148107
-0.340240 0.400301 0.258671
-0.806360 0.407387 0.038751
0.087184 -0.484414 0.332755
0.391784 0.188177 -0.210429
0.375310 0.329949 -0.215278
0.507134 -0.301180 -0.189406
0.798198 -0.262751 -0.117124
-0.803055 0.373518 -0.162125
-0.142806 0.113452 0.094949
-0.378365 -0.767294 -0.242357
-0.655018 -0.177882 -0.031394
0.296868 0.159720 0.125995
-0.734401 0.090588 0.015615
-0.064255 -0.252388 0.110102
-0.574686 0.007494 0.110112
0.253701 0.257404 0.195959
