-0.400487 -0.155762 -0.256542
-0.076191 0.417836 0.114890
0.241575 -0.223546 0.113962
0.434889 0.596127 -0.167185
0.050617 -0.531510 -0.244676
-0.387842 -0.595380 -0.266788
-0.485000 -0.459097 -0.267979
0.404807 -0.306793 0.324816
0.041991 0.284370 -0.224967
-0.566749 0.285037 -0.253463
0.254288 -0.208397 -0.227171
0.374658 0.163414 0.129735
-0.256116 -0.122481 0.093142
0.301521 -0.097318 -0.222220
0.535432 0.445812 -0.111779
-0.552668 -0.196359 -0.264671
-0.477393 0.235211 -0.250506
-0.487350 0.094269 0.168290
0.068253 0.559323 -0.216958
0.012016 -0.093730 -0.235692
0.589696 0.367173 -0.197272
0.276098 0.123464 -0.217968
0.007994 0.779502 -0.214353
-0.622950 0.087958 -0.260953
0.785526 -0.107579 0.142298
-0.636787 0.377618 0.087641
0.096796 0.283490 -0.222421
-0.714555 -0.151287 -0.126900
0.614897 0.096456 0.139336
0.262500 0.496677 0.132697
0.393280 -0.132028 0.123324
0.190271 0.927206 0.073272
-0.011665 0.529124 0.281499
0.167562 -0.498375 0.248367
0.360136 -0.028561 0.124322
-0.570057 0.209624 0.212578
-0.203734 0.398865 0.108448
-0.451528 0.014578 -0.254733
0.493468 0.400376 0.141141
-0.083582 0.068009 -0.236182
0.499613 -0.407781 -0.220596
0.286420 0.249442 0.127723
-0.148355 -0.621533 -0.256215
-0.049762 -0.431422 -0.246910
-0.090389 -0.663627 -0.254538
0.651166 0.004862 0.250551
0.469096 0.046173 -0.210834
0.694662 -0.308469 -0.209012
-0.672563 -0.205545 -0.196090
-0.095237 -0.325221 0.095679
0.138049 0.490064 0.331966
-0.053341 -0.590910 -0.251010
0.793560 0.062316 0.004317
-0.775467 -0.055298 -0.213805
-0.382782 -0.446724 -0.262886
-0.821031 0.129243 -0.269213
0.008551 0.613985 0.169993
0.472546 -0.086640 0.128155
-0.410451 0.490405 -0.241079
-0.867507 0.113366 0.070320
-0.361683 -0.094165 0.243576
0.185131 -0.346778 -0.233822
0.484938 -0.184182 0.331592
0.556076 0.242557 0.140183
0.953769 -0.158884 -0.105876
0.259485 0.243942 -0.215776
-0.257176 -0.037003 0.095200
-0.419107 0.363625 -0.244610
0.484235 0.183609 0.135365
-0.500030 0.076271 0.291879
-0.517286 0.246970 0.090017
-0.847484 0.039762 -0.116889
-0.112628 0.182224 -0.234727
0.050544 0.098378 -0.229151
0.004841 -0.302030 -0.241163
-0.209522 -0.317889 0.242215
-0.701475 0.178508 0.079703
0.032315 0.542330 0.328302
-0.358678 0.235747 -0.244932
0.190424 0.694639 -0.207900
0.476580 -0.451668 0.119345
-0.116177 0.089775 -0.237172
-0.797162 -0.029798 -0.150613
0.118392 0.479516 0.330786
0.314895 0.750699 0.035641
-0.723798 0.228899 0.079899
-0.083472 -0.020049 -0.238348
0.724002 -0.325952 0.134033
-0.446160 0.260943 0.093693
-0.017236 0.472950 0.170805
-0.631996 0.285186 -0.256515
0.848618 -0.013034 -0.040798
-0.563318 -0.155981 0.161864
0.570485 -0.425679 -0.217718
0.556010 -0.233636 -0.213661
0.190758 -0.062329 0.115556
0.172891 -0.191531 -0.230568
-0.011679 0.533428 0.300393
-0.450915 0.289390 -0.247930
-0.217126 -0.377031 -0.253409
0.181714 0.423508 0.184159
-0.087475 -0.427673 0.093517
-0.029512 -0.012845 0.311720
0.172434 0.313808 0.123971
0.201070 0.272794 0.124301
0.068636 0.513129 -0.218079
-0.164158 -0.410212 -0.251746
-0.548543 0.169120 0.291895
-0.493771 -0.461103 -0.224792
0.501345 0.484771 -0.000532
-0.738691 0.284735 -0.261524
-0.303064 0.493705 0.106134
-0.936583 0.170017 -0.134022
-0.271815 0.173202 0.099696
0.026331 -0.396238 0.099623
0.851907 -0.071661 -0.195809
0.286686 -0.436037 -0.231266
0.752042 0.130079 -0.080240
0.155402 0.115651 0.118288
-0.325500 -0.357006 0.289372
0.360564 0.363282 0.134002
-0.384093 -0.478000 0.078384
-0.405021 0.362134 -0.243987
0.132115 -0.583041 -0.242129
0.765652 -0.015295 -0.198459
-0.443169 -0.536570 -0.198898
-0.262601 0.069997 -0.244518
0.045502 0.069671 0.317268
-0.686336 -0.118865 -0.269021
-0.061135 0.228847 0.154867
0.699716 -0.075764 -0.203038
-0.765248 0.189213 0.076979
-0.371769 0.001552 0.090783
0.538762 0.440294 -0.104094
0.075337 0.014033 0.317293
0.400114 0.627216 0.040109
0.114372 0.792053 -0.209061
0.106897 0.821629 0.133420
-0.392262 -0.609737 -0.202706
-0.421021 -0.008304 -0.253869
-0.014317 -0.350994 -0.243268
0.028107 0.824706 0.129806
-0.741842 0.188869 0.078067
0.456887 -0.213276 0.329561
0.493137 0.241153 0.137201
-0.484393 -0.497378 0.021507
0.250171 0.190506 0.124572
-0.421035 -0.042644 -0.254716
-0.750926 -0.105538 -0.053457
0.745005 0.125839 0.075818
-0.790076 -0.037318 -0.180013
-0.186333 -0.691857 -0.259728
-0.474189 -0.496359 -0.149195
-0.627852 -0.068953 0.077050
-0.134386 0.220336 -0.234806
0.751845 0.020677 0.143883
-0.253648 -0.482971 -0.257731
0.060557 -0.292831 -0.238327
0.012402 -0.753235 0.090169
0.034479 -0.082412 -0.234361
-0.474718 0.314884 0.184661
0.012550 0.213038 -0.228104
0.360845 0.220355 0.130492
0.597301 -0.007888 0.135940
-0.328306 0.216583 0.303381
0.199456 0.535351 0.247487
-0.379319 0.502929 -0.239312
-0.041517 -0.129229 -0.239074
0.051355 0.553040 -0.217905
-0.328532 0.069679 -0.247614
-0.842734 0.046933 -0.268907
0.109406 0.275310 0.325330
-0.220034 -0.753446 0.079277
-0.051532 0.721790 -0.218564
0.244759 -0.176630 -0.226834
-0.738655 -0.018270 0.073110
-0.047888 0.228514 0.316809
0.048551 -0.583647 -0.246058
0.514895 0.481504 -0.177144
0.010398 -0.736670 0.090484
-0.206279 0.547119 -0.230118
0.169602 -0.497830 0.210539
-0.349431 -0.109809 0.221363
0.392476 0.424129 0.136997
-0.214097 0.538806 -0.230689
0.717996 -0.320654 -0.208219
-0.518148 -0.219074 0.138667
0.181781 0.594157 -0.210782
0.067507 -0.414305 -0.240996
-0.100358 -0.127427 0.100316
0.047145 0.013551 -0.231402
-0.090560 -0.346184 0.095382
-0.123930 -0.762784 -0.258553
0.254335 0.519055 -0.209235
0.339569 0.140693 -0.214571
0.571894 0.371598 0.121778
-0.160563 0.679839 -0.224705
-0.642438 -0.265138 -0.021779
-0.062618 0.233151 0.208450
0.299615 0.320000 -0.212022
0.206240 0.577407 0.268631
0.765661 0.090142 0.139370
-0.112749 -0.252634 0.096649
0.476105 -0.289997 -0.218793
0.386709 -0.179842 0.327098
0.259171 0.834256 0.002254
-0.209632 0.039137 0.099304
0.139034 0.176546 -0.223079
-0.887373 0.087233 -0.007071
0.217213 0.706054 0.135738
0.664881 -0.105452 0.341961
-0.347767 -0.022902 0.091304
-0.665589 -0.212012 -0.235141
-0.452657 -0.330256 -0.263287
0.871184 -0.123896 0.145908
0.694540 0.211398 -0.061573
0.773622 0.106295 -0.160213
0.484825 -0.421697 -0.221632
-0.095331 0.061079 0.105198
-0.106493 -0.740004 -0.257175
0.242945 -0.518205 0.106762
0.634573 0.253204 0.144122
0.052132 -0.691828 -0.248558
-0.540071 -0.389708 0.073254
0.477546 0.283029 0.137503
-0.533340 -0.404399 -0.220010
0.929322 -0.124509 -0.095802
0.827092 0.003100 0.121226
-0.568379 0.409459 0.091630
-0.467301 -0.070571 -0.257571
-0.310264 -0.203679 -0.253497
0.056631 0.526482 -0.218312
-0.657776 0.318284 0.085195
-0.003201 -0.495088 -0.246299
0.924393 -0.133883 0.082898
0.417142 0.617492 -0.120979
0.213281 0.064313 0.119733
0.259552 0.849176 -0.165353
-0.082816 0.126828 0.226955
-0.207329 0.118258 -0.240739
0.502038 0.468992 0.143234
0.391065 -0.154682 -0.219440
-0.089452 0.076039 0.164645
-0.252065 -0.015622 0.095966
-0.163410 0.158992 0.104424
0.678062 -0.293304 0.132686
0.675232 -0.248287 0.133664
-0.364839 -0.091355 0.262504
-0.679463 0.026030 -0.265127
0.163604 0.310327 0.123752
0.303884 0.766346 0.038412
-0.651856 -0.061122 0.076119
0.706920 0.087322 0.143422
0.192840 0.240078 -0.218993
-0.060105 0.256827 0.251201
-0.016369 -0.411869 0.097237
-0.054743 0.285580 0.248581
0.832005 -0.219366 -0.200382
-0.637526 -0.045575 0.126800
-0.628140 0.299647 -0.255978
0.222596 0.893015 -0.062076
-0.621587 -0.074625 0.192145
-0.271508 -0.414714 -0.256885
0.110411 0.132032 -0.225518
-0.078418 -0.702954 -0.254947
0.120622 0.269311 0.325708
0.609887 -0.404537 -0.215351
-0.325849 -0.133090 0.104620
0.235135 -0.206986 0.114068
0.369544 -0.544981 -0.230070
-0.160907 -0.834297 -0.262048
-0.237987 0.078384 -0.243158
0.205202 -0.433299 -0.235015
0.577859 0.371278 0.031916
-0.634441 -0.269288 -0.101935
0.431437 0.220584 0.133804
-0.618752 -0.166004 0.075084
0.317208 -0.324149 -0.227078
-0.312489 -0.049436 -0.249799
0.736044 -0.297670 0.135294
0.337934 0.718743 0.021383
-0.896877 0.169508 -0.271773
-0.674650 -0.177872 -0.269928
0.126154 0.144014 0.291005
0.197126 -0.665882 -0.241127
-0.510514 0.160561 -0.253897
-0.013838 0.323795 0.320753
-0.635211 -0.073914 0.076583
0.393326 -0.303012 -0.222991
0.160803 -0.103985 -0.228976
-0.593377 0.165678 0.289710
-0.097968 0.363473 -0.229572
-0.317577 -0.423092 0.082853
-0.944662 0.169005 0.050225
0.225702 0.085143 -0.221273
0.453108 0.556802 -0.026177
-0.372189 0.119449 -0.248432
-0.690228 0.018628 0.255816
0.521018 0.399855 0.142419
-0.672962 -0.006214 0.254800
0.047456 -0.579283 -0.246002
-0.359044 -0.213126 -0.256015
0.646444 0.058817 0.139886
-0.719270 0.060411 0.257535
0.089677 0.775996 0.131489
-0.848846 0.033591 -0.028718
-0.425737 0.445569 -0.242900
0.795221 -0.041461 -0.197719
0.069935 0.231391 0.322399
-0.425900 0.237542 0.258773
-0.006578 0.271852 -0.227550
0.641195 0.211423 -0.198699
-0.386952 -0.291174 -0.259246
0.171532 0.129932 0.119395
0.087165 0.865459 -0.208525
-0.055531 0.004004 -0.236446
0.824838 0.029842 -0.133255
-0.166533 0.103994 -0.239180
-0.507545 -0.454468 -0.081139
0.111897 -0.722124 0.095597
0.609455 0.234089 0.142475
0.134781 0.174122 0.217106
-0.214485 -0.301650 0.188378
0.370681 -0.096909 -0.218971
0.210869 0.136588 0.121402
0.594634 0.337273 0.137859
0.215371 0.204758 0.123293
0.686194 -0.156359 0.341704
-0.092472 0.047759 0.113997
-0.672062 -0.002904 0.204863
0.234422 0.040437 0.120135
0.476200 -0.319797 -0.219523
-0.591456 -0.110823 0.282984
0.135695 -0.669260 0.098014
0.741863 0.015728 -0.198809
-0.198862 -0.734511 0.080736
-0.592760 -0.340890 0.021653
-0.391586 -0.575410 0.075631
0.146182 -0.328945 0.312156
-0.495549 -0.136474 0.286844
-0.079057 -0.054094 0.103121
-0.396189 0.056059 -0.251119
0.242323 0.775348 -0.203479
-0.292328 -0.196414 0.266205
-0.224389 0.314613 0.177139
-0.100265 0.666495 -0.222209
-0.456002 -0.362407 0.077865
0.174603 0.102921 -0.223229
0.282136 -0.352339 -0.229415
-0.507651 0.115189 0.259277
0.204930 0.777319 -0.205182
-0.908572 0.125001 -0.084577
-0.617611 -0.274086 0.072473
0.076742 0.453669 0.328198
0.677994 0.245078 -0.167585
-0.168956 -0.628887 0.084740
-0.665678 0.232697 -0.259387
-0.048049 0.328649 0.319270
-0.414402 0.283534 -0.246364
0.730781 -0.032107 -0.200507
0.538056 -0.035058 0.132495
0.880475 -0.066189 0.036650
0.690986 -0.220315 -0.207011
0.224402 0.468624 0.130221
-0.011552 -0.846517 -0.255354
-0.565931 0.201597 0.234991
-0.181413 0.098732 0.102095
0.101078 -0.391371 0.103244
-0.249011 -0.067058 0.094841
0.058633 0.125675 0.319263
0.184494 0.691258 0.133841
-0.242658 0.311425 -0.237632
-0.072575 0.187011 0.244641
0.230990 0.793163 0.138531
0.404731 -0.180989 0.327914
0.036514 -0.315055 -0.240001
0.753703 -0.149653 0.276900
-0.478469 -0.075533 0.289146
-0.057234 -0.087941 0.103309
0.387437 -0.143061 -0.219324
0.778226 0.043767 -0.196414
-0.036758 0.391950 -0.226003
-0.344108 -0.116923 0.215151
-0.080735 0.142873 0.246986
-0.174393 0.195735 0.104815
-0.030133 0.531025 -0.222264
0.016781 0.611803 -0.218075
0.012783 -0.007964 0.313821
-0.660973 -0.098369 -0.267328
0.548977 -0.360310 0.124988
-0.632813 0.140854 -0.260111
-0.545576 0.246451 0.088680
0.255276 -0.248920 0.319239
-0.026065 -0.479550 -0.246987
-0.253129 0.357716 0.159836
0.125461 0.106868 0.147174
0.278473 0.795012 0.125443
-0.412717 0.498065 0.101106
-0.163064 -0.641389 0.084708
0.671048 -0.282510 0.132624
-0.444010 -0.540649 -0.141543
-0.943304 0.167933 -0.006261
0.195304 0.496614 0.178481
-0.714201 0.177762 0.079088
0.501629 -0.097183 0.334519
-0.407697 0.418534 0.099380
0.787873 0.066393 0.049126
0.138746 -0.586075 0.100208
0.035515 0.412757 0.325258
0.760887 -0.062216 -0.199839
0.204677 0.353793 -0.215635
-0.289521 -0.679966 0.077834
0.265056 0.017164 0.120996
-0.758810 -0.095862 -0.034936
0.225918 0.892289 -0.106193
0.691367 0.198522 -0.196667
-0.466460 0.391548 0.095962
0.217894 -0.037083 -0.224652
0.478527 0.369946 0.139691
-0.290994 0.040777 -0.246568
-0.301293 0.085541 0.096155
-0.099945 0.243441 0.109478
0.330143 -0.145617 -0.222070
-0.370765 0.156688 0.272105
-0.595032 -0.116740 0.232929
0.901097 -0.079168 -0.145402
-0.289743 -0.385671 0.085079
0.295756 -0.245537 -0.226144
-0.471483 0.474911 -0.244320
-0.353565 0.149089 0.095273
-0.007773 -0.760249 0.089051
0.735059 -0.071869 -0.201287
0.616557 0.307961 0.112414
-0.388911 0.183528 0.265226
-0.403735 -0.102329 -0.255377
0.243513 -0.155208 -0.226364
0.056905 0.702028 -0.213972
0.109609 -0.020464 -0.229315
-0.927165 0.157587 -0.146705
0.242047 0.064769 0.121092
-0.613164 -0.247768 0.073330
-0.592461 -0.116005 0.184744
0.752623 -0.045990 -0.199826
0.433365 0.579452 0.037344
-0.515785 0.141935 0.096769
-0.034088 0.408874 0.292468
-0.001306 0.581735 0.263740
0.015783 -0.288546 -0.240318
-0.547045 0.072133 -0.257788
0.497120 -0.104540 -0.213237
-0.394468 -0.222267 -0.257900
0.324178 -0.333627 -0.226985
-0.288797 -0.413676 -0.257669
-0.457131 0.286855 0.213151
0.251918 -0.394523 -0.231871
-0.567803 -0.262611 0.075089
0.653314 0.075266 0.140613
-0.238857 0.601715 -0.230298
0.626939 -0.034390 0.341936
-0.061570 -0.705875 -0.254230
-0.721918 0.101153 0.282099
-0.190015 -0.459311 -0.254167
-0.238786 -0.269196 0.216996
-0.065904 -0.004169 -0.237134
-0.078956 -0.344447 -0.246134
-0.442948 0.146368 -0.251083
0.100576 -0.600453 0.098066
-0.339230 -0.463110 0.080852
-0.564656 0.030324 0.287719
0.262539 -0.371059 0.316568
0.331999 0.656015 -0.202221
0.589860 0.227058 0.141383
0.609391 -0.082871 -0.207444
0.586880 0.233256 -0.200705
-0.121018 -0.301253 -0.247039
-0.442513 0.407752 0.097483
0.234039 0.647475 -0.207020
-0.465625 -0.293807 -0.262996
0.341023 -0.541540 0.110780
-0.474938 0.391377 0.095561
0.309232 0.769103 -0.075147
0.087871 -0.384610 0.262700
0.883696 -0.080144 0.137453
-0.177223 -0.301190 0.092432
-0.710855 0.056282 0.170592
-0.259541 0.206225 -0.241016
0.202314 0.525765 0.138622
0.286440 0.545932 0.135033
0.195468 -0.403064 -0.234725
0.005784 -0.304561 0.100920
0.786448 0.016776 -0.196694
-0.751254 0.227953 0.078590
0.025522 0.384485 0.324093
0.157741 -0.250408 0.109373
-0.406974 -0.282537 -0.259971
-0.206417 0.092640 -0.241328
-0.636537 -0.119446 -0.266703
0.141817 -0.006626 0.114637
-0.190988 0.379288 -0.233539
0.315613 0.315613 0.130721
-0.050234 0.283353 0.132463
0.241194 -0.468126 0.313175
-0.486385 0.274735 -0.249952
0.131682 0.778543 0.133519
-0.540058 -0.223048 -0.264738
-0.784566 -0.056462 -0.058817
0.149177 0.254221 0.222538
-0.342176 -0.121415 -0.252964
0.222991 0.904253 -0.190023
-0.861341 0.046961 0.021941
0.450309 -0.246972 0.328422
-0.212486 -0.871936 0.076710
0.453302 -0.169218 -0.216884
0.473483 0.064462 -0.210178
-0.026799 0.779020 -0.215994
0.172047 0.899673 0.138396
-0.412142 -0.009733 0.118319
-0.645992 -0.238679 -0.252849
0.340788 -0.262325 0.322914
-0.415917 -0.314467 0.286186
-0.387889 -0.150309 0.291545
0.518898 0.046751 -0.208487
-0.103099 -0.001872 0.150931
0.396593 -0.528353 -0.228394
-0.653626 0.068501 -0.262870
-0.433851 0.363924 -0.245293
0.089224 0.532588 -0.216635
0.504863 -0.023608 0.131223
-0.039616 -0.513068 -0.248448
0.600652 -0.293006 -0.213034
0.011381 0.609627 -0.218382
0.435731 0.484029 0.140499
0.716943 -0.025446 0.141111
-0.282699 0.236291 0.306003
-0.818270 0.171044 0.074048
-0.479690 -0.286324 0.265538
-0.465776 -0.500567 0.074001
0.838293 -0.061905 -0.196206
0.169099 0.644947 0.131978
0.148899 -0.138052 0.111729
-0.048616 -0.086947 -0.238365
0.550049 -0.090456 -0.210411
-0.057740 -0.694230 0.088339
0.101114 0.238767 0.324041
0.800021 0.042808 0.114576
-0.641563 0.217182 -0.258640
-0.129990 -0.877237 0.080443
-0.494884 -0.421354 -0.267511
0.408619 0.613122 0.059738
-0.764628 0.066904 0.073993
-0.800430 -0.041219 0.024266
-0.258856 0.011163 0.096309
0.788275 0.085089 -0.159744
0.591613 0.352171 0.023717
0.325619 0.156698 -0.214829
-0.600638 0.005707 -0.261936
-0.573171 0.222519 0.121584
-0.776089 0.090646 0.074042
0.164241 -0.384402 -0.235728
-0.347804 -0.102409 0.115727
0.414809 0.124171 0.130648
-0.388500 -0.049255 0.176600
0.269680 -0.223395 0.115282
-0.642053 -0.262898 -0.052077
0.121757 0.117850 0.282023
-0.058474 0.764602 -0.217833
0.472709 -0.326653 -0.219856
-0.785352 -0.064773 0.043535
0.633041 -0.366358 0.128777
-0.525951 -0.218414 0.253611
0.089584 -0.254402 -0.236020
-0.211672 -0.684431 0.081370
0.298004 0.664177 0.138490
0.540742 -0.152629 -0.212379
-0.633841 -0.064737 0.276751
0.182727 -0.404484 -0.235357
-0.280238 0.152074 0.098781
0.527190 -0.437339 0.122069
0.830022 -0.198496 0.142141
0.476886 -0.204579 0.330712
-0.216772 0.292632 0.296112
0.129400 -0.709501 0.096728
-0.544413 -0.224054 0.077135
-0.747052 0.114091 0.075980
-0.711996 -0.007958 -0.267489
-0.123086 0.683051 0.119232
0.561673 -0.406421 -0.217656
-0.569159 0.343483 -0.252135
-0.085944 0.116525 0.256405
0.082930 0.364281 0.326284
0.033488 0.562735 -0.218502
0.129352 -0.356286 -0.236669
-0.003285 -0.337891 -0.242428
0.137738 0.208441 0.295273
0.672588 -0.022762 0.214645
0.151040 -0.475693 0.261135
0.058193 0.711924 0.128434
0.196404 0.553202 -0.211107
-0.523677 -0.239384 0.077728
-0.055897 -0.130261 0.102328
0.130160 -0.069434 -0.229559
0.147211 0.234268 0.182919
0.860669 -0.167213 -0.197754
0.570784 0.362040 -0.198284
0.126711 -0.370061 0.310231
0.550648 -0.232780 -0.213891
0.565177 -0.226923 0.334297
-0.435758 0.012991 0.241647
-0.527350 0.225018 0.089005
0.845309 -0.186367 0.143156
-0.278065 -0.482121 -0.258854
0.669876 -0.084616 -0.204654
0.016960 -0.736698 -0.251311
0.210402 -0.275433 -0.230879
0.198521 0.322072 0.125396
0.207465 0.902380 0.073208
0.189043 -0.241298 0.111064
0.376748 0.668493 -0.041511
0.573501 -0.260407 -0.213502
0.172750 0.712299 -0.208292
-0.162782 0.603135 -0.226699
0.154114 -0.549115 0.101839
-0.463320 -0.293072 0.082517
-0.137575 -0.310957 -0.248054
-0.433402 -0.479465 -0.266064
-0.675808 -0.202538 -0.177887
0.540483 0.422068 0.066445
-0.022341 -0.233175 0.101363
-0.302413 -0.718389 0.076283
-0.498223 -0.237075 -0.263124
0.011326 0.148079 -0.229763
-0.189213 0.660810 -0.226516
-0.114106 0.137038 0.106192
0.293705 -0.142534 0.118401
-0.655337 0.356305 0.086247
-0.475771 -0.321995 -0.264166
-0.112435 -0.648980 -0.255209
-0.124466 -0.790707 -0.259267
0.714409 0.170198 -0.196286
0.004305 0.257826 0.319977
-0.274908 -0.481107 -0.258681
0.246925 0.304983 -0.214860
-0.468485 -0.410886 0.076085
0.276553 0.801380 0.086471
0.243427 0.257475 0.125907
-0.719076 -0.136252 -0.219049
-0.293492 0.562057 -0.233834
-0.403783 -0.385623 0.153684
0.076468 -0.450182 -0.241461
0.271545 -0.189122 -0.225888
-0.395967 0.457507 0.100890
-0.517291 -0.427935 -0.216132
0.174337 -0.509999 0.268298
0.455919 -0.210152 0.329593
0.334901 0.011938 -0.217963
0.363043 0.690684 -0.067489
0.184582 0.449207 0.227250
-0.171254 -0.768986 -0.260923
0.567746 0.142618 0.138266
0.491680 -0.246804 -0.216999
0.105214 -0.397677 0.132904
0.492666 0.512537 -0.165565
-0.047720 -0.781949 0.086645
0.514420 0.160960 -0.205881
0.203105 0.550050 0.224691
-0.065280 0.415957 0.115355
-0.081955 0.526268 0.117293
0.205691 -0.572950 0.103667
-0.436038 -0.345365 0.222199
-0.461146 -0.312382 0.257713
0.687675 -0.050839 0.282783
-0.220561 -0.865056 0.076501
-0.341192 -0.317245 -0.257746
-0.178618 0.445408 0.110772
-0.391741 -0.588668 0.075297
0.092456 0.211157 0.322955
0.408883 0.281894 -0.207843
0.539840 -0.074988 -0.210507
-0.133544 0.009799 -0.239957
0.415893 -0.114451 0.124816
-0.556820 -0.090453 0.285108
0.538181 0.431717 -0.002077
-0.433191 -0.351139 0.240217
-0.190222 -0.752559 0.080695
-0.420807 0.206691 0.093543
0.030969 0.048488 0.316065
0.180045 0.427165 0.239358
-0.071477 0.011025 0.310343
-0.203347 -0.059531 -0.244936
-0.132958 -0.026920 0.101267
-0.034538 -0.495235 -0.247771
-0.051872 -0.568818 0.091705
-0.130785 0.005022 0.102156
-0.171417 -0.950456 0.033287
-0.680007 -0.207864 -0.054465
0.213685 -0.228427 0.112535
-0.729673 -0.136479 -0.050785
0.198551 -0.075238 0.115603
-0.466544 0.307677 0.134857
-0.332386 -0.389027 -0.259103
0.167463 0.227891 -0.220482
0.043999 0.733251 0.128295
0.556996 -0.255859 0.333200
0.341723 -0.361199 -0.226843
0.351418 -0.359253 -0.226341
0.204605 -0.036127 -0.225251
-0.099869 0.299143 0.110855
-0.732307 0.231207 0.079558
0.839563 -0.089608 0.145272
0.407184 0.074348 -0.213039
0.075759 -0.595741 0.097020
-0.437269 0.255282 0.244468
0.170758 -0.508433 0.307342
-0.467560 -0.287682 0.090466
0.146745 0.581681 0.334632
-0.308866 -0.120295 -0.251376
-0.315003 -0.159325 0.219149
-0.012394 -0.020373 0.312336
0.206919 -0.283126 0.316131
0.383130 -0.260349 -0.222417
0.708515 -0.025098 -0.201377
0.596885 0.186135 -0.201398
-0.398964 0.365476 -0.243621
0.238011 0.014563 0.119665
0.308808 0.308059 0.130216
-0.797411 -0.029154 -0.153711
0.677785 0.121535 -0.199201
-0.749267 0.071686 0.074831
0.123878 0.123387 0.255799
0.131283 0.625052 -0.212386
0.160299 0.308273 0.192967
0.572586 0.384379 -0.027525
0.625983 0.308775 -0.043898
-0.708841 0.215893 0.080279
-0.476758 0.086284 0.089062
-0.095603 -0.221441 -0.243881
-0.074032 0.029279 0.310673
-0.405412 0.520261 -0.240107
-0.730360 -0.132157 -0.086855
-0.517857 0.102608 -0.255670
0.304473 0.324287 0.130413
0.171959 0.396844 0.299567
-0.048862 -0.624507 -0.251628
-0.410859 -0.601585 -0.000047
0.632347 0.310576 -0.162977
0.056578 0.440166 0.326920
-0.732501 0.079756 0.254954
0.003840 0.577637 0.124504
-0.332355 -0.277531 0.291010
-0.238900 -0.062358 -0.246671
0.001210 0.422386 -0.223474
-0.041813 0.570263 0.120258
-0.160813 -0.213245 -0.246733
-0.523573 -0.420156 -0.202110
-0.446544 0.469447 0.098816
0.915923 -0.138668 -0.194462
-0.214913 0.137784 0.101488
0.130919 -0.095374 -0.230163
-0.572328 -0.353152 -0.165207
0.001598 -0.017927 -0.234311
-0.067768 0.352293 0.113669
0.549953 0.089568 -0.205977
0.057130 0.155588 -0.227432
0.214834 0.390989 -0.214243
0.427507 0.299549 0.135566
0.475788 0.532426 -0.116942
0.210833 0.369370 0.127139
0.013358 -0.830616 -0.253795
-0.374664 0.099980 0.093074
-0.874343 0.071848 -0.044258
0.803008 -0.242913 0.139781
0.437810 -0.309620 0.326292
-0.058640 -0.378017 -0.246010
0.427889 -0.505795 -0.226372
0.025686 0.408974 -0.222659
0.189404 -0.660325 0.100750
0.708942 0.198147 -0.143352
-0.741103 -0.122344 -0.025084
0.487191 0.518734 -0.147022
-0.695216 -0.177805 -0.142175
0.491075 0.369770 0.140275
0.115237 -0.463903 -0.239983
-0.070631 0.183666 0.184293
0.438088 0.564155 -0.199517
0.663814 -0.008245 0.194640
-0.125788 -0.574512 0.088103
0.401815 0.233940 0.132745
0.351701 0.718381 -0.190105
0.721504 0.052987 -0.198844
0.449081 0.384555 -0.203429
0.144607 0.751162 -0.208653
0.248433 -0.201357 -0.227272
-0.004279 0.682022 -0.217331
-0.766451 0.230145 -0.264170
0.626628 -0.329311 0.129390
0.799831 0.066053 -0.134304
-0.663258 -0.017935 0.229963
-0.293832 0.319999 -0.239818
0.206445 0.334997 0.126086
0.625085 -0.275485 -0.211457
0.334467 0.236624 0.129657
0.347521 -0.300978 -0.225087
-0.598281 0.162930 0.289413
-0.626939 0.059881 -0.261832
-0.703899 -0.175754 -0.028540
-0.080616 -0.739325 0.086156
0.860402 -0.045158 0.122870
0.112365 -0.731662 -0.246718
0.242204 0.467628 0.131031
0.663526 -0.006465 0.179876
0.004108 0.371102 0.322760
0.657265 0.007652 0.139132
-0.320849 -0.198262 0.293503
-0.201943 0.440384 -0.232546
-0.055883 -0.038821 -0.237518
-0.900654 0.126318 -0.222734
-0.710346 0.225741 -0.261650
0.830557 -0.153156 0.143284
-0.322728 0.019616 -0.248576
0.508656 -0.486610 0.119241
0.108646 0.774456 -0.209763
0.249324 0.793922 -0.202694
0.378014 0.650794 0.130453
-0.122270 0.096675 -0.237288
-0.493026 -0.255477 0.140000
0.400485 0.020930 -0.214670
0.365626 -0.152070 0.121534
0.241472 0.544795 -0.209203
0.175560 -0.506856 0.215112
-0.256886 -0.051624 -0.247249
0.405528 0.371741 -0.205785
0.039782 0.070903 0.317030
0.193780 0.571265 0.336578
0.036503 -0.485905 0.097889
0.219366 -0.187866 -0.228301
-0.630608 -0.278028 -0.067234
0.420381 0.250073 -0.208089
0.013298 0.455274 -0.222097
0.160970 0.854777 -0.205332
0.536412 0.443938 -0.106801
-0.495398 0.440381 0.095811
-0.517515 0.074626 -0.256344
-0.067645 0.672362 0.121565
0.925265 -0.128955 0.015857
-0.515899 -0.231940 0.242883
-0.543780 0.197222 0.087550
-0.228399 -0.275571 0.123536
0.535063 0.012292 0.133522
0.039130 -0.117548 0.107093
-0.769929 -0.023161 -0.270577
-0.640824 -0.260636 -0.095817
-0.377882 0.225944 0.301290
0.227962 -0.486440 0.312104
-0.279938 -0.201473 0.127156
-0.439442 0.374940 0.096818
-0.561559 0.211140 -0.255041
-0.364683 -0.003084 0.091001
-0.202565 0.278205 0.230136
-0.044482 0.316874 0.141179
-0.502788 0.439478 0.095442
0.116878 0.792693 -0.208928
-0.023179 0.441552 0.175754
-0.266164 0.514903 -0.233717
0.657502 0.266684 -0.081041
-0.510670 0.040507 -0.256864
-0.179964 0.188930 -0.237716
0.020564 0.126978 -0.229850
-0.169213 -0.575919 0.086034
-0.717259 -0.111626 0.071811
0.049329 0.185786 0.320309
-0.842425 0.021174 0.005352
-0.087628 -0.098790 -0.240484
0.602382 -0.407515 -0.215776
0.663651 0.222120 0.144718
0.181565 0.409179 -0.215352
-0.659744 -0.127361 -0.267985
0.125728 0.714758 -0.210434
0.278696 0.329517 0.129335
-0.026399 -0.264449 0.100402
0.171033 0.821424 -0.205683
0.268752 0.418384 -0.211042
-0.734107 0.156207 -0.264477
-0.695546 -0.172257 -0.197116
-0.455414 0.272994 -0.248545
0.204421 0.179252 -0.219950
0.531514 -0.204951 0.333261
-0.740139 0.056358 0.074880
-0.673423 0.284208 0.083622
0.900610 -0.074711 -0.186088
-0.251115 -0.548533 0.082873
0.135191 -0.439838 -0.238455
-0.590976 -0.344125 0.028785
-0.030762 0.423072 0.275161
-0.433217 -0.554372 -0.161742
-0.466171 -0.004447 0.291475
-0.480005 0.470347 0.097271
0.345837 -0.401159 -0.227635
-0.639237 -0.050179 0.203447
-0.191296 -0.381645 0.089789
-0.026914 -0.598734 -0.249965
-0.389477 -0.501038 0.077563
-0.350554 -0.111337 0.255485
-0.645621 -0.203618 0.072898
0.503700 -0.482715 0.119850
-0.791780 -0.047630 -0.041627
-0.798179 -0.030062 -0.131851
0.872245 -0.054656 0.040472
0.218036 -0.340516 0.315237
0.249435 -0.310353 -0.229912
-0.745433 0.208510 -0.263718
-0.810855 0.261777 0.074147
0.218960 -0.626060 0.102979
-0.086326 0.709027 0.121594
0.238758 0.851623 0.133502
0.693685 0.200515 0.069728
-0.754572 -0.110690 0.059407
0.221179 -0.380737 -0.232970
-0.051550 0.088288 0.313181
-0.408964 0.210915 0.282272
-0.358885 0.349256 0.305219
0.571200 -0.176132 -0.211532
0.286326 -0.559981 -0.234338
0.202391 -0.372222 0.313722
-0.315837 -0.308497 0.291020
0.864795 -0.045581 0.058722
0.348229 0.693495 0.133847
0.507838 0.364753 0.140936
0.050168 -0.613714 -0.246724
-0.446132 -0.551915 0.013729
0.277318 0.815745 -0.200844
-0.383635 0.178768 0.234249
-0.142707 0.508373 -0.228095
-0.513153 -0.389928 0.074510
0.397066 0.431940 -0.204698
0.154710 -0.669074 0.098910
0.069526 0.023094 0.317245
-0.765112 -0.074969 -0.162697
-0.806231 -0.010321 -0.219740
-0.328963 0.477386 -0.237583
0.234393 0.691601 0.136186
-0.226924 -0.617824 -0.259804
-0.043745 0.331400 0.319540
-0.356066 -0.220278 -0.256052
0.304000 0.137000 -0.216328
-0.590284 0.079093 0.287721
0.259426 0.830518 0.038766
0.126794 -0.470043 -0.239593
0.753656 0.121725 -0.014974
-0.276697 -0.577167 0.080969
-0.629258 0.034089 0.284786
0.755857 -0.211005 -0.203743
0.566816 -0.304149 0.127208
-0.063300 0.238943 -0.231018
0.250040 -0.247384 0.113771
-0.451562 -0.483802 0.075080
0.069001 -0.177760 -0.235094
0.129805 -0.167455 -0.231992
-0.502179 -0.255245 0.280692
0.257197 0.469277 0.131773
-0.369332 0.180798 -0.246786
0.206734 -0.252035 0.111628
0.322535 0.094251 -0.216513
0.634480 -0.298392 -0.211582
0.121393 0.059406 0.115308
-0.051148 0.495405 0.117975
-0.218212 0.102964 -0.241626
0.153975 0.259935 0.133856
0.776161 0.079712 0.088071
0.407314 0.100175 -0.212396
0.044859 0.397051 -0.222054
0.364393 -0.074534 -0.218714
0.181976 -0.516328 0.217346
-0.317255 -0.101214 0.090803
0.034538 0.451757 0.326174
-0.749288 0.170014 -0.264848
-0.393713 -0.400979 0.162496
-0.059864 0.305096 -0.229226
-0.676630 -0.067707 0.074796
-0.557502 0.056519 -0.258663
0.424071 -0.208834 0.328133
0.034371 0.582850 -0.217965
-0.473858 0.206648 0.091058
-0.104647 0.011828 0.246590
-0.220383 -0.290094 0.155456
-0.458127 0.041609 0.281572
0.174538 0.123448 -0.222726
-0.026230 -0.586347 -0.249628
0.200342 0.513292 0.131402
0.194662 -0.080876 -0.226820
0.733002 -0.153075 -0.203385
0.110295 0.025888 0.156111
0.163786 -0.081238 -0.228275
0.543021 0.067564 0.135258
-0.513299 -0.453254 -0.004262
-0.510254 -0.235441 0.192495
0.392545 0.467789 0.138076
-0.562882 -0.219636 -0.265723
-0.190667 0.236859 0.105067
0.058907 0.050894 0.317433
0.331829 0.065101 -0.216797
0.306905 -0.398108 -0.229383
-0.044566 0.337434 0.231838
-0.018047 -0.751989 0.088774
0.837412 -0.001494 0.009518
0.337465 -0.553185 -0.231775
-0.586266 0.212850 0.291206
0.381665 -0.199630 0.326374
0.396944 -0.052348 0.125459
-0.426672 0.484451 0.100116
0.277699 -0.268495 0.319807
-0.454113 -0.367377 -0.264271
0.114504 -0.120605 0.110548
0.336174 0.729534 -0.067995
-0.016333 0.649475 0.123404
0.392295 -0.566712 0.112561
0.244208 0.087934 0.121764
-0.278412 -0.691652 0.078066
0.224979 0.137454 0.122084
-0.462995 -0.300203 0.154692
0.234426 -0.619165 0.103874
-0.463885 -0.510147 -0.161034
-0.331241 0.436650 0.103408
-0.036370 0.318490 -0.227796
-0.454953 -0.158783 -0.259168
-0.068023 0.575962 -0.222931
0.265180 -0.584241 -0.235926
0.535852 -0.037942 -0.209781
0.368750 -0.059461 0.123964
0.541574 -0.083145 0.336736
0.592749 -0.195505 -0.211000
-0.772060 -0.082932 0.032290
0.090175 0.359009 -0.220870
0.812741 -0.182837 0.141718
0.126044 0.368112 0.328398
0.618496 -0.248931 -0.211111
0.069716 -0.651700 -0.246745
0.582589 -0.157370 0.336827
0.039448 0.019605 -0.231613
0.425725 0.130040 -0.210798
0.184827 -0.530280 -0.238360
0.678524 0.140141 0.143394
-0.449197 0.214909 -0.249686
0.327122 0.465890 -0.207137
0.628927 -0.372512 0.128432
0.450780 -0.418960 -0.223159
0.204103 0.437915 -0.213588
-0.278507 -0.711678 0.077568
0.654282 -0.084361 0.341985
-0.476510 0.317033 0.189420
-0.417865 -0.591625 0.001672
-0.465526 -0.528352 0.061892
-0.363833 0.499726 0.103436
0.676360 -0.273193 -0.208999
-0.467270 -0.182109 0.287043
0.186491 -0.326381 -0.233255
0.340054 -0.335023 -0.226276
-0.089319 -0.812663 0.083940
-0.597710 -0.124333 -0.265005
0.159052 0.639945 -0.210718
0.476004 0.351252 -0.202989
-0.283274 -0.268649 0.293528
0.143431 -0.266929 -0.233806
0.054955 0.121940 -0.228364
0.626367 0.203247 -0.199595
0.374587 0.584602 -0.201987
-0.069065 -0.670892 0.088384
-0.510900 -0.239149 0.242765
-0.278760 -0.346902 -0.255553
-0.811530 -0.014935 -0.086842
0.877847 -0.213986 0.143999
-0.195196 0.231120 -0.237389
0.083538 0.477632 -0.218256
0.490500 0.381607 0.140540
-0.062462 -0.118778 0.102304
0.647764 0.273739 -0.005097
0.483177 -0.274522 -0.218080
-0.332034 -0.508929 -0.262042
0.356255 0.703987 -0.105400
-0.623073 0.095471 -0.260774
0.505153 0.460435 -0.198932
0.327760 -0.262811 -0.225071
0.438125 0.352181 -0.204741
-0.770012 0.222924 0.077587
0.734405 0.053828 -0.198219
-0.446222 0.033789 0.180037
-0.243965 0.584730 0.111146
-0.507308 0.128796 -0.254530
0.400285 0.345031 0.135412
-0.654297 0.210118 -0.259410
0.675957 -0.045569 0.343956
-0.174202 -0.347662 -0.250674
-0.001237 -0.363810 -0.242971
-0.423743 -0.368764 0.283350
-0.053344 0.307399 0.309643
-0.007839 0.550047 0.281365
-0.197593 0.017540 -0.242766
-0.457725 -0.053485 -0.256702
0.449876 -0.159381 -0.216802
0.289391 -0.579520 0.107426
0.144752 0.243661 -0.221157
0.253396 -0.482404 -0.233968
-0.252021 0.053932 -0.244419
0.764900 0.101664 0.026433
0.194673 -0.160563 0.113318
0.630857 0.241299 -0.198447
0.126578 0.705897 0.131489
0.402750 0.436200 -0.204326
0.089891 -0.713780 0.094772
0.516202 -0.243993 -0.215781
-0.321885 0.100679 -0.246539
-0.926442 0.179703 -0.195842
0.045178 0.809185 -0.211879
0.261683 -0.123707 -0.224737
-0.227560 0.654449 0.113633
0.178379 -0.359202 0.312919
-0.413759 -0.368135 0.120314
-0.038735 -0.270095 0.099685
-0.127387 -0.400677 0.092313
0.014191 -0.382582 0.099391
0.470874 0.018872 0.130678
-0.563751 0.104802 0.289597
-0.091493 0.383679 0.113331
0.581161 0.377385 -0.085922
0.469628 0.080920 0.132149
0.115838 0.280293 0.325754
0.763686 0.098410 0.080696
0.450317 -0.184815 -0.217408
0.433349 -0.125339 -0.216737
0.124867 0.116515 0.202808
0.282276 0.106924 0.124015
0.061275 0.860982 0.132253
-0.757963 -0.105204 0.053032
0.877973 -0.149163 0.145603
-0.852876 0.164084 0.072256
0.485905 0.399512 -0.201336
-0.007443 -0.214041 -0.239569
-0.094780 -0.664508 -0.254765
0.085307 0.208800 -0.224801
0.601400 0.196692 0.141175
-0.009802 0.158356 0.316864
-0.560045 0.206136 0.093713
0.145943 0.135314 -0.223772
0.176265 0.548140 0.335188
-0.620657 -0.074377 0.174907
-0.271536 0.502807 -0.234267
-0.928538 0.145671 0.003878
-0.212905 0.404929 0.108168
-0.015923 0.046225 -0.233550
-0.109666 -0.620304 -0.254373
-0.165883 -0.604009 0.085498
0.260678 0.653677 0.136482
-0.043972 -0.439943 -0.246849
0.243502 -0.265190 -0.229076
0.663037 0.256162 -0.053642
0.613341 -0.351203 0.128228
-0.319055 -0.731212 -0.032040
0.175916 0.390900 0.180464
-0.490570 0.067346 -0.255261
0.707810 -0.056816 0.139910
0.677269 -0.024620 0.161531
0.417815 -0.383497 0.118273
0.605761 0.317076 -0.197754
-0.124596 -0.259288 0.095930
0.121235 -0.311738 0.106151
0.260858 0.340220 0.128763
0.009882 0.216927 0.319230
-0.600435 -0.103516 0.077482
-0.578529 -0.057353 0.284908
0.392607 0.632186 0.103728
-0.013927 0.511868 0.260498
-0.868019 0.072826 -0.153816
0.505045 0.300669 0.139226
-0.262745 0.552916 0.109482
0.030281 -0.533906 0.096414
0.512512 -0.005365 -0.210071
-0.288161 -0.436970 -0.258213
0.116991 0.760623 -0.209713
-0.586170 -0.331152 -0.186975
-0.635084 -0.256370 -0.231846
0.488470 0.422122 0.141443
-0.066484 0.443391 0.115975
-0.063940 0.235263 0.248791
-0.605346 -0.160090 0.075858
0.436413 0.158083 -0.209606
-0.379581 -0.066429 0.223121
-0.387274 -0.050370 0.169490
0.227365 -0.130279 0.115595
0.281776 -0.311655 -0.228429
-0.708641 -0.145459 0.071380
0.776187 -0.106240 -0.200208
0.330204 -0.245211 -0.224523
0.525002 0.313086 0.140466
-0.716854 -0.139955 -0.213699
-0.813760 0.003418 -0.250800
-0.088685 -0.751379 0.085480
0.871943 -0.043275 -0.078124
-0.071211 -0.529347 -0.250329
-0.317980 -0.159580 0.268495
-0.525497 0.290802 0.090713
-0.493647 0.099440 0.210789
0.525311 0.142138 -0.205835
0.197279 0.707595 0.134842
-0.328572 -0.699677 0.075519
-0.326372 -0.122972 -0.252262
0.394775 -0.082274 0.124620
-0.228599 -0.180389 -0.249098
0.126810 0.138404 0.251326
-0.016422 0.547825 0.120894
0.859652 -0.172350 0.144174
0.894917 -0.080073 -0.194002
0.128344 0.143582 0.237428
0.848917 -0.032161 0.147127
-0.058256 -0.011466 -0.236955
0.172944 0.377398 0.192422
0.422504 0.507211 -0.201650
0.237150 0.027536 0.119944
-0.550175 -0.106589 -0.262341
0.639134 0.034681 0.138949
0.645144 -0.188687 -0.208378
0.345962 0.592999 -0.203121
-0.276501 -0.589063 -0.261417
0.144269 -0.425115 0.309696
-0.089968 0.062829 0.310754
0.887358 -0.159531 0.145787
0.079989 -0.507015 0.099405
-0.611154 -0.093125 0.229334
-0.548461 0.028137 -0.258939
0.036928 0.101789 -0.229705
-0.190764 0.678803 0.115957
-0.145815 -0.299953 0.093933
0.864695 -0.222324 0.143178
-0.202842 -0.310269 0.099589
-0.336298 -0.117065 0.094482
-0.254947 -0.792047 -0.265411
-0.144671 0.678428 0.118107
0.500344 0.488410 -0.024282
-0.298166 -0.652738 0.078100
-0.143220 0.603477 0.116327
-0.326818 0.444288 -0.238299
0.537853 -0.048248 -0.209941
0.626237 0.292645 0.126894
-0.166703 -0.734122 -0.259850
-0.717520 -0.150849 -0.085235
-0.112208 -0.316961 0.095088
0.319239 0.028901 0.123823
-0.386359 -0.414488 0.193796
-0.024429 0.066221 -0.233456
-0.356860 0.348206 0.305288
-0.385801 -0.048664 0.127959
-0.126390 -0.741903 0.083948
0.914043 -0.099638 -0.126192
0.549042 -0.181102 0.334670
0.549964 0.242456 0.139894
-0.194126 0.109940 -0.240326
-0.603251 -0.096271 0.139760
-0.264672 0.364509 0.266854
0.605688 0.350827 -0.181947
-0.343093 0.497689 -0.237744
0.366194 -0.458078 -0.228085
-0.263591 -0.196611 -0.251137
0.135761 0.648013 0.130492
0.613290 -0.044413 -0.206313
0.614225 -0.087960 0.340020
-0.744235 0.096438 0.257823
0.142942 -0.195401 0.110036
0.166478 0.335664 0.165167
-0.326442 0.590322 0.107421
-0.037376 -0.320890 0.098496
0.198412 -0.234616 -0.230435
-0.069212 -0.158962 0.100997
0.289355 0.793229 -0.025528
-0.567295 0.122920 -0.257485
-0.588586 0.097567 -0.259107
0.332221 -0.272469 0.322262
-0.007694 -0.478025 -0.246089
0.390938 0.398344 -0.205813
0.003843 -0.555478 0.094644
-0.146348 -0.443858 0.090361
-0.292157 -0.735962 -0.265772
-0.522882 0.144404 0.181060
-0.207280 0.045531 -0.242530
0.013531 -0.060067 0.312572
0.018277 0.597861 -0.218349
0.022385 -0.505701 0.096739
-0.465446 0.129571 -0.252550
-0.674511 -0.043740 0.075487
-0.263466 -0.636946 0.080115
-0.633818 -0.063844 0.266714
-0.503616 -0.324305 0.076574
-0.704492 -0.071889 0.073388
-0.110496 -0.036993 0.174174
0.587694 0.349498 0.114002
0.615079 -0.204454 0.337188
0.722514 0.170621 -0.057466
-0.401151 -0.037340 0.245454
0.663196 -0.015623 0.284255
-0.486458 -0.263382 0.122870
-0.257981 0.074883 -0.244181
-0.421447 0.233320 0.234841
0.407522 0.623263 -0.032976
-0.556411 -0.167679 0.180533
-0.527668 0.148787 0.208459
0.327164 -0.140005 0.120030
-0.346691 -0.239090 0.291286
-0.400331 -0.384212 0.084384
-0.449901 0.033781 -0.254184
0.200755 0.630574 0.133106
-0.235452 -0.318162 0.294547
0.416283 0.153304 -0.210667
-0.359237 -0.431420 0.080696
-0.615938 -0.307330 0.020708
-0.178217 0.283376 -0.235305
0.135002 -0.624615 0.099083
-0.207971 -0.317301 0.179740
0.640251 0.291510 -0.080093
0.156631 0.311194 0.292203
0.495352 -0.376812 -0.220032
0.392241 0.648334 -0.065507
-0.690829 -0.013685 0.075463
0.319788 -0.219656 -0.224381
0.362741 -0.543966 0.111738
-0.370384 0.317905 -0.243455
-0.361610 -0.669597 -0.033756
-0.071389 0.010204 0.310327
0.093210 0.414204 -0.219367
0.182802 0.604596 -0.210477
-0.342515 -0.368332 0.288296
0.659334 -0.009116 0.274182
0.094351 -0.064623 0.142322
-0.226986 -0.001709 0.097484
-0.791706 0.191627 0.075800
-0.011225 -0.174901 -0.238782
-0.327620 0.322431 0.306023
-0.474010 0.080416 0.109642
-0.754265 -0.094385 0.070502
0.499634 0.496853 -0.104659
-0.146456 -0.494523 0.089107
0.718424 -0.091649 0.243816
-0.245856 -0.492040 0.084512
0.422102 0.004879 0.128049
-0.415957 -0.019501 0.283853
-0.247199 0.646876 -0.229575
-0.101956 -0.291131 0.096205
-0.508667 0.131068 -0.254538
0.587546 -0.094743 -0.208760
0.179736 -0.132931 0.113299
0.110366 -0.448945 -0.239842
-0.209892 0.582818 -0.229407
-0.387169 0.200581 0.300229
0.169107 0.491697 -0.213902
-0.331611 0.076038 -0.247602
-0.868195 0.082313 -0.253854
-0.469369 0.065019 0.203858
-0.639392 0.100002 -0.261427
-0.273571 -0.523059 -0.259652
-0.709798 0.053133 0.188178
0.225544 -0.009235 0.118494
-0.432787 0.158617 -0.250305
-0.903058 0.130889 -0.234650
0.024121 -0.541545 -0.246165
0.001147 0.589386 0.238790
0.161762 0.450248 0.332095
0.205005 0.390735 -0.214709
0.482019 0.222626 0.136223
0.563201 0.138965 0.137963
0.655400 0.265117 -0.031160
0.277720 -0.346438 -0.229477
0.099249 -0.024222 0.200892
-0.132975 -0.637581 0.086211
0.343866 0.306950 0.131831
0.706121 -0.066708 0.166092
-0.494674 0.354072 0.093717
-0.098435 0.698321 -0.221339
0.197724 0.543612 0.324023
-0.382519 -0.056678 0.163431
-0.670210 -0.202089 0.071784
0.272198 -0.540409 0.107585
0.533724 0.013152 -0.208621
0.089459 -0.443039 -0.240676
0.528851 -0.433788 0.122234
-0.272673 0.368145 0.309723
0.753031 0.137162 -0.172466
0.166589 0.333033 0.151177
-0.806722 0.177947 -0.267343
0.247422 0.845570 0.063518
0.184146 0.368660 0.125871
0.099442 -0.002189 0.291350
0.232282 0.586692 -0.208601
0.567632 0.381456 0.081666
-0.864952 0.166243 0.071743
-0.345409 0.492545 0.104122
-0.071781 -0.444450 -0.248263
-0.580287 -0.333422 -0.254441
0.249901 -0.090086 -0.224460
0.623513 -0.048854 -0.205944
-0.684067 0.273677 0.082864
-0.806798 -0.026727 -0.033121
0.416759 0.143633 0.131219
0.726472 0.173818 -0.154034
-0.106655 -0.019206 0.160171
0.807581 0.057521 -0.163119
0.146865 -0.685306 0.098142
-0.282020 -0.023704 0.094364
-0.145572 -0.623296 0.085974
0.199813 -0.254741 -0.230865
-0.578034 0.238237 0.086957
-0.662311 0.171679 -0.260733
0.529516 0.119490 0.135905
0.088561 -0.616863 -0.245003
-0.425280 -0.055422 0.292133
0.008593 0.425844 -0.223043
0.483224 -0.407392 0.120748
0.347847 0.024072 -0.217058
0.510421 0.421784 -0.199639
-0.057970 -0.451763 -0.247796
0.182392 0.136903 0.120076
-0.122624 -0.601991 0.087574
0.715417 -0.199345 0.136752
-0.542719 -0.356710 0.073944
-0.631875 0.304786 -0.256026
-0.923061 0.136278 0.019965
0.285417 0.803890 -0.079407
-0.170998 -0.954934 0.075236
0.295606 0.663433 0.138359
-0.244643 0.600668 0.111507
-0.461314 -0.429317 -0.266135
-0.179746 0.209488 0.104903
-0.438684 0.379054 -0.245146
-0.041891 0.038881 -0.234948
0.720134 0.181545 -0.138586
0.038493 -0.184218 -0.236682
0.362678 0.156756 0.129010
-0.027102 0.236400 0.317977
-0.452968 0.165946 -0.251069
0.791304 0.011705 0.145510
0.046835 0.332869 -0.223544
-0.378708 -0.653350 0.074313
0.649328 0.276751 -0.062201
0.134554 -0.198135 0.109576
0.156625 0.284353 0.176566
-0.528156 0.385232 0.092917
-0.120989 0.213163 -0.234356
-0.128342 0.713673 0.119740
0.414975 0.623908 -0.156577
0.396715 0.265795 -0.208810
-0.185804 -0.094615 -0.244979
-0.580121 -0.026917 0.285583
-0.071794 -0.597316 -0.252032
0.665142 -0.008464 0.176249
0.512732 0.120532 -0.206957
0.883953 -0.050881 -0.183637
-0.411939 0.226894 0.155702
-0.097472 -0.815128 0.083497
0.020350 -0.607344 -0.247963
-0.681406 0.203108 -0.260853
-0.537732 -0.416446 -0.020756
-0.128852 -0.747560 -0.258409
0.429382 0.599905 -0.121946
0.454657 0.414307 -0.202435
-0.171687 -0.028035 0.099425
0.198146 0.083496 0.119497
0.248632 0.793416 -0.202739
0.318457 -0.550508 0.109502
-0.118002 -0.307120 0.095059
0.062713 0.281797 -0.224060
-0.204129 -0.642085 0.082768
0.674940 -0.315994 0.131981
-0.664184 0.122090 -0.262043
0.756860 -0.094697 0.141273
0.059265 0.322259 -0.223224
0.415492 0.614484 -0.062561
-0.804811 0.058673 -0.270194
0.536229 0.295853 -0.201534
-0.336439 0.187326 -0.245084
0.206266 0.077872 0.119739
-0.479916 -0.274024 0.135812
0.746651 -0.127572 0.191348
0.232798 -0.373253 -0.232242
-0.100360 0.099805 -0.236184
-0.398717 0.073462 -0.250808
0.711510 0.078685 0.143424
-0.414463 0.523741 0.101657
0.904116 -0.088070 -0.096188
-0.075006 0.208411 0.109783
-0.279408 -0.331435 -0.255202
0.083612 0.456915 0.328599
-0.348120 0.010257 0.092105
-0.649609 0.022297 -0.263821
-0.508231 -0.228015 0.080368
0.122781 0.102196 0.190316
-0.074140 0.317597 0.112515
-0.335922 0.218718 0.303077
-0.484085 -0.276301 0.225726
0.255334 0.800674 -0.202246
0.105272 0.073782 -0.227194
0.211102 0.574177 0.139875
0.902413 -0.089618 -0.052770
-0.678315 -0.213870 -0.015873
-0.688255 -0.192428 -0.092671
-0.609474 0.104390 0.287446
-0.288459 -0.720808 0.076877
-0.567147 -0.032597 0.286051
-0.445558 -0.534411 0.074114
-0.237026 -0.597483 -0.259775
-0.416230 -0.016518 0.255798
0.705046 0.019264 -0.200446
0.380419 0.666195 -0.074046
-0.077667 -0.551094 0.090934
-0.571480 -0.347035 -0.244746
0.019450 -0.755150 0.090452
-0.488027 -0.271073 -0.263485
-0.425720 0.251973 0.099597
0.116929 -0.470233 -0.240060
-0.055382 0.358424 0.114400
-0.547803 0.174614 0.243704
0.231723 -0.110481 -0.225814
0.455424 0.171040 -0.208396
-0.109612 0.527568 0.116030
0.372528 -0.040637 -0.217497
0.576042 -0.127813 0.337249
0.126725 0.132196 0.226561
-0.147151 -0.191611 0.096542
-0.438734 0.370231 -0.245366
0.186529 0.350678 -0.216562
-0.539717 0.138979 0.291566
0.362447 -0.069282 0.123426
0.857401 -0.020515 -0.194290
0.003635 0.367775 -0.224707
-0.537980 0.164940 0.194793
-0.168856 0.661381 -0.225548
0.459654 0.533991 0.118545
0.871433 -0.089059 0.146779
0.824001 0.027442 -0.094166
0.420422 0.592662 0.096728
0.411159 -0.138567 0.127583
-0.249720 0.242651 -0.239658
-0.531467 -0.371692 -0.268000
0.428982 0.252725 0.134481
-0.395245 0.093455 -0.250153
-0.449366 0.313647 -0.247259
-0.545019 0.363049 0.091580
0.093638 -0.722755 -0.247376
-0.600241 0.377050 -0.252763
-0.184467 -0.479882 -0.254414
0.866731 -0.125300 0.145665
0.084097 0.366961 0.326404
-0.229037 -0.066644 -0.246315
0.391348 0.568133 -0.201608
-0.393429 0.468431 0.101278
0.460242 -0.476928 0.117957
0.622380 0.127715 0.140458
-0.084094 -0.402493 0.094296
-0.391696 0.064708 0.091407
0.957698 -0.176877 -0.006723
0.303291 -0.630070 -0.235271
0.303464 -0.005035 -0.219854
-0.363433 -0.671773 0.018349
-0.112938 0.385790 -0.229723
0.227892 0.430710 0.129450
-0.413340 -0.022144 0.271542
0.342798 -0.509535 -0.230449
0.114584 -0.172243 -0.232823
-0.718656 0.309106 0.082117
0.333176 0.478261 -0.206548
0.286620 -0.255523 0.320544
0.326271 -0.118218 -0.221576
0.454471 0.330022 -0.204521
-0.176486 -0.754196 -0.260803
-0.059425 0.517267 -0.223975
0.481500 0.511832 0.016797
-0.444437 0.142471 -0.251248
-0.075705 -0.240511 -0.243419
0.286922 -0.264029 0.320349
0.377341 0.126639 0.128954
-0.195237 -0.387267 -0.252636
-0.309204 -0.458094 -0.259720
0.429054 0.507991 -0.201324
0.193653 0.492917 0.201526
0.397181 0.552372 -0.201723
-0.622600 -0.079323 0.258889
0.471381 0.094140 0.132557
-0.054244 -0.627933 -0.251965
0.472506 0.268199 -0.205201
0.394601 -0.352154 -0.224143
-0.203895 0.272742 0.310130
0.142016 0.062854 -0.225743
-0.305861 0.263859 -0.241765
-0.427298 0.284546 -0.246943
0.084680 -0.243097 -0.235971
0.182334 0.601383 0.131524
-0.601221 -0.106511 0.282633
0.562382 0.326767 0.142555
-0.205252 -0.006999 0.098372
-0.118131 0.093079 -0.237182
-0.293788 0.381851 0.309072
-0.059719 -0.099631 -0.239197
0.431211 0.396280 0.138124
-0.152765 -0.757726 -0.259779
-0.557900 0.034443 -0.259226
0.568888 0.379458 0.083655
-0.347205 -0.581524 -0.264543
0.524541 -0.300804 -0.216791
-0.235806 0.636819 -0.229289
-0.030772 0.371461 0.321135
-0.225058 -0.596047 -0.259179
0.503708 0.109561 0.134452
0.582644 -0.089292 -0.208855
0.954356 -0.178476 0.085294
-0.421385 -0.266356 0.287115
0.287094 0.803531 -0.101765
0.346172 0.681379 0.141170
-0.015487 0.473154 0.130372
-0.043523 0.357178 0.292356
-0.058776 0.250286 0.191609
0.222183 -0.376630 -0.232822
0.820552 -0.156721 -0.199374
0.573948 -0.030226 -0.207806
0.615360 -0.330972 0.128821
-0.309532 -0.747765 -0.001705
0.056405 -0.327908 0.102716
0.024866 0.426802 -0.222257
-0.230967 -0.341321 -0.253177
-0.378816 0.220735 -0.246245
0.476689 0.464988 -0.200153
-0.274989 -0.044113 -0.247911
0.621392 0.326796 -0.167303
-0.184650 0.231721 -0.236880
0.590972 0.099879 -0.203801
0.350794 0.707832 -0.061610
0.657308 0.187262 -0.198540
-0.032737 0.377122 0.123609
-0.034263 -0.797578 0.086891
-0.360062 0.066780 -0.249162
-0.273245 -0.238568 0.294739
0.152256 0.286113 0.287366
-0.642390 0.095074 0.285674
0.474613 0.502735 -0.199320
0.464241 0.384421 -0.202723
0.246088 -0.150516 0.115974
-0.543541 -0.189545 0.216066
0.472544 0.523163 0.034163
-0.642180 0.049892 0.284570
0.133757 0.150721 0.140342
-0.506249 -0.239176 0.170288
-0.592514 -0.212511 0.075166
-0.240598 -0.264586 0.195392
-0.361628 0.233286 0.302232
-0.414809 -0.205354 0.288927
-0.163200 0.125150 -0.238503
-0.669901 0.025296 0.282665
-0.097390 -0.567651 -0.252500
0.930916 -0.126993 -0.093820
0.364599 -0.524108 -0.229787
0.352571 -0.453730 0.113486
0.260670 -0.283855 0.318630
-0.205696 0.316772 -0.235769
0.635777 0.268380 0.144553
-0.747492 0.259848 0.079552
-0.404868 0.210349 0.224312
-0.477425 -0.493258 -0.132162
-0.068595 -0.835725 -0.257760
0.102581 0.237448 -0.223285
0.239824 0.806989 -0.202816
-0.417219 -0.245844 -0.259547
-0.072299 0.326476 -0.229282
-0.773715 0.107556 0.074570
0.677691 -0.025424 0.163651
-0.047052 -0.360859 -0.245044
0.779490 0.069455 -0.195722
-0.123136 0.662113 -0.223389
0.176964 0.389568 0.149972
-0.379285 -0.243190 -0.257704
-0.160663 0.212297 -0.236235
-0.698103 -0.061849 -0.268167
-0.065445 -0.171045 0.100876
0.196609 0.578917 -0.210463
0.686124 -0.114710 -0.204635
-0.082702 0.453507 0.115464
0.384340 -0.307296 0.323845
-0.866729 0.060342 -0.038738
0.078037 0.173604 0.321354
-0.034786 0.529612 -0.222517
-0.857163 0.051227 -0.089649
0.077370 -0.233165 0.106033
-0.886544 0.087880 -0.027056
0.277836 -0.511094 0.108571
0.737760 -0.018759 -0.199851
