-0.610045 -0.512212 -0.116509
-0.458747 -0.545673 -0.167403
0.010947 0.220260 -0.256715
-0.597369 -0.548845 0.024734
0.783538 -0.554646 -0.115716
-0.364187 0.177407 0.166370
-0.321745 -0.119461 -0.213285
0.457878 0.720241 -0.319321
0.324520 -0.425215 -0.203220
-0.485260 0.509968 0.073598
0.740576 -0.283731 -0.076557
-0.450046 -0.358620 0.157452
0.077625 -0.400529 -0.198057
-0.589765 -0.444476 0.170135
0.605107 0.566733 0.033500
-0.250220 -0.646270 0.179447
-0.594463 -0.373619 0.163350
0.248878 0.294439 -0.271270
-0.304146 -0.225964 0.140002
0.006627 -0.184163 0.126377
0.587714 0.542917 -0.305966
-0.557819 0.092570 0.173186
-0.744950 0.284574 -0.183841
0.664813 0.141795 -0.191827
0.260326 0.380647 0.269409
0.517703 0.566905 -0.306164
0.351544 -0.089996 0.106584
-0.645888 -0.200804 0.148030
0.629843 -0.278652 0.116491
-0.267821 0.477567 0.276141
0.426239 -0.015916 0.097048
0.455899 -0.157974 0.110028
-0.141879 0.018233 0.111144
-0.343889 0.055941 0.170936
-0.596672 0.335258 0.200421
-0.716193 0.191470 0.101323
0.293682 0.130171 0.086831
-0.778322 0.553348 0.052420
-0.278454 0.471826 0.075954
0.712564 -0.253580 -0.231913
0.593582 0.072786 -0.260175
0.202576 -0.287007 0.130420
0.090345 0.351316 0.071446
-0.540893 -0.400339 0.164319
0.740405 -0.250628 0.036606
0.203339 -0.046353 0.106865
-0.156478 0.359218 -0.265165
-0.088870 0.235491 -0.255141
0.281238 -0.294532 -0.214671
-0.266321 0.382704 0.079323
0.222050 0.465804 0.262257
-0.327273 -0.626378 -0.163546
-0.106592 0.472885 0.271650
0.560363 0.628201 0.029946
0.715277 -0.332657 -0.224263
0.695936 -0.501382 -0.207171
0.413544 -0.088132 -0.238914
-0.684557 0.425898 -0.255478
0.521273 0.208169 -0.271194
-0.031540 0.648849 0.046093
-0.649742 -0.012073 0.129693
0.543807 -0.562609 -0.196515
0.040078 -0.210013 -0.215534
0.646922 -0.471240 0.134799
-0.373474 0.265306 0.278361
0.402007 -0.346149 -0.213330
0.566689 0.749427 -0.141681
0.630124 -0.020681 0.091256
-0.480361 0.426936 -0.261846
-0.314681 -0.628448 0.179683
0.771097 -0.440094 0.023010
-0.358995 0.399901 0.080486
-0.620822 0.410742 -0.255952
-0.250089 -0.517504 -0.176561
-0.551672 -0.615670 0.185706
-0.767158 0.465642 -0.018823
0.290415 -0.279495 -0.216423
-0.041538 -0.525136 0.161198
0.410090 0.396416 0.179999
-0.783796 0.531167 -0.262726
-0.311953 0.202434 -0.245062
-0.725813 0.206746 -0.050079
0.589072 0.216955 -0.274134
-0.597777 0.272456 0.100276
0.578586 -0.030938 -0.249572
-0.238702 0.241514 -0.251131
-0.697050 0.028262 -0.066077
-0.538135 0.020544 0.329126
-0.079171 0.485128 -0.279849
0.576344 0.723016 -0.028834
0.100488 -0.686848 -0.170761
0.628761 -0.544874 0.142556
0.290977 0.097035 -0.253259
0.086492 -0.207634 0.126221
-0.168516 -0.487387 -0.182010
-0.473224 0.392735 0.290740
-0.428243 0.150052 -0.236371
-0.689707 0.119434 0.118060
-0.039716 -0.643969 -0.170651
0.744525 -0.290277 -0.015388
-0.226528 -0.053251 0.120732
-0.089030 0.174526 0.094239
0.560778 -0.112787 0.102391
-0.332646 0.050751 0.113818
0.697469 0.010290 0.041021
-0.092580 -0.329005 -0.199828
0.430052 -0.244061 -0.224173
0.657891 -0.446956 0.132088
0.445064 0.676736 0.028739
-0.091873 -0.091016 -0.223121
-0.133370 0.385834 -0.268476
0.199244 -0.113202 0.113527
0.739327 -0.280533 -0.091925
0.388096 0.409649 -0.286809
0.240378 -0.640306 -0.179605
0.150117 -0.214025 -0.218519
0.759175 -0.354973 0.068955
0.382775 0.353747 0.102427
0.461160 0.615170 -0.309148
0.130730 0.008232 0.269410
-0.400894 -0.429162 0.162841
-0.215957 -0.384215 0.152770
-0.174347 -0.585429 0.171169
0.399110 0.686618 0.029183
-0.322779 -0.046389 0.260336
-0.513396 -0.728227 -0.147875
-0.366260 -0.636795 0.182082
-0.068422 0.489437 0.181899
-0.610790 0.422022 0.205307
0.638796 0.043792 0.084686
-0.644779 -0.249372 0.069724
-0.488722 0.062536 -0.225957
0.615965 -0.272471 0.262845
0.052064 -0.285570 0.134899
-0.596790 0.333960 0.193315
0.033958 -0.331246 0.139921
0.037660 -0.091384 0.116353
0.560169 0.077499 0.083803
-0.036472 -0.627300 -0.172381
0.487539 -0.160850 0.109339
-0.503421 -0.403654 0.163493
0.652795 0.200101 -0.242555
-0.690551 0.321350 -0.245071
0.462538 0.614479 0.034290
-0.288690 -0.728990 0.188716
-0.563016 0.051490 -0.222597
0.175997 -0.403531 0.348678
-0.230071 -0.711056 0.185164
-0.634768 0.062419 0.121949
-0.285203 0.084487 -0.234349
0.476946 0.373983 0.057365
-0.657573 0.490445 0.080795
0.364809 -0.332316 -0.213541
-0.707797 0.281558 0.102762
-0.494292 -0.435321 0.166310
0.086517 -0.041463 -0.233441
0.344814 0.074979 -0.252755
0.072243 -0.077410 0.208072
0.052854 0.339666 0.073736
0.594175 0.004315 -0.253498
0.616087 0.422677 -0.240514
0.167796 -0.460232 0.354474
0.264988 -0.222933 0.122240
0.414123 0.703440 -0.316336
-0.209845 0.203146 -0.248265
-0.116938 0.515571 -0.281667
0.305509 0.141445 -0.258048
0.630706 0.383928 -0.065275
-0.366205 0.346194 -0.257455
0.405941 -0.162805 0.112034
-0.460456 0.036050 -0.224235
-0.613282 -0.472778 -0.046450
-0.553157 -0.116332 0.136924
-0.263300 0.387276 0.100993
0.698662 0.001511 0.035518
0.415185 0.398189 0.081188
-0.695498 0.364469 -0.249136
0.618962 0.475906 0.043040
-0.483401 -0.268030 -0.193796
0.098981 0.316412 -0.268819
-0.289591 -0.033677 0.120753
-0.004998 -0.052882 -0.229516
-0.509931 0.062377 -0.225291
0.567428 0.783214 -0.006689
0.299685 -0.608133 -0.184572
0.222540 0.648799 0.038300
-0.462205 0.420656 0.287671
-0.043032 0.245843 -0.257560
0.208705 -0.121725 0.114070
-0.386683 -0.089389 0.335228
0.031996 -0.268395 0.133835
0.716492 -0.155529 -0.138132
-0.585493 0.287280 0.269692
0.061360 -0.065899 0.319181
0.271933 0.597709 -0.301633
-0.297658 -0.734141 -0.153918
-0.193948 -0.039353 0.118373
-0.521946 -0.499677 0.173452
-0.472650 -0.432340 0.165354
-0.055629 0.431611 -0.275338
-0.158310 -0.048222 -0.225267
-0.653204 -0.260056 -0.147777
-0.561729 0.072963 -0.224736
0.411554 -0.587074 0.153349
0.088876 -0.054154 0.205374
0.746381 -0.465077 0.131144
-0.483717 -0.789383 -0.142806
0.690878 -0.019647 -0.205263
0.205151 -0.237651 0.125515
-0.270633 -0.091528 -0.217585
-0.058824 0.452183 -0.277252
-0.452736 -0.387906 -0.183015
0.592235 0.585791 -0.173948
-0.469848 0.014763 0.327596
-0.604656 0.062642 -0.222409
-0.287822 0.204869 -0.246041
-0.461441 -0.470753 0.168766
0.456039 0.567246 -0.304304
-0.100917 0.024626 0.209462
0.744387 -0.303854 -0.066230
-0.190838 -0.622644 0.175314
0.607490 0.522675 -0.071110
0.387096 -0.159811 -0.231093
0.705027 -0.034067 0.045788
0.208249 0.377872 0.271279
-0.414213 -0.649877 0.184833
-0.036528 0.263549 0.083922
-0.221349 -0.544402 -0.174813
-0.487373 0.009929 -0.220854
0.495248 -0.175313 -0.232897
0.637094 -0.445234 -0.210856
-0.701006 0.158410 0.114596
-0.111612 -0.223182 0.133822
-0.418097 0.194417 0.308440
-0.353025 -0.605198 -0.164827
0.278712 -0.203721 -0.223473
-0.005584 0.159843 -0.250299
0.329991 -0.018134 -0.243195
0.629449 -0.028020 -0.251418
0.786521 -0.569275 -0.103668
-0.330296 -0.463338 0.164017
0.651460 0.097550 -0.264373
-0.577992 0.204584 0.137959
-0.204417 0.434082 -0.271014
0.471895 -0.129362 0.106740
-0.100497 0.027714 -0.234466
-0.243830 0.116442 -0.238744
0.298254 -0.122671 -0.231999
0.188154 0.682680 -0.307371
-0.634752 -0.362351 -0.114954
-0.575466 -0.715157 -0.094716
0.041362 0.432273 0.065033
-0.238112 -0.191190 0.134575
0.382461 0.060731 -0.252517
-0.776439 0.521075 -0.021284
-0.035952 0.163799 0.093659
-0.107197 -0.259220 0.137210
0.719335 -0.137255 -0.012989
0.181016 0.642003 0.040239
0.537762 0.268466 -0.277596
-0.387105 0.002632 0.326243
0.592459 -0.559423 -0.198320
-0.244986 -0.698744 -0.158995
-0.653909 0.137299 -0.228198
0.640449 0.123178 0.076872
0.604113 0.533074 -0.106484
0.370498 -0.189407 -0.227690
0.659351 -0.344994 0.122072
0.647902 -0.015706 -0.253189
0.049423 0.254049 -0.261200
0.628484 0.065963 0.082834
-0.326349 -0.059734 0.137052
0.573139 0.745339 -0.018459
0.589178 -0.142065 0.104383
0.119520 -0.397899 0.349861
0.047991 -0.464585 0.358577
-0.072274 0.502043 0.144193
0.057853 -0.654753 0.170822
-0.359069 -0.602568 -0.164899
-0.258292 -0.410505 -0.186773
0.092017 -0.022837 0.314029
0.102050 0.361312 0.070110
-0.406855 0.355000 0.292393
0.269868 0.702829 0.031564
0.084061 -0.054200 0.317340
-0.615677 -0.326806 -0.183989
-0.098962 0.274062 0.084810
-0.591427 -0.589599 0.007733
-0.056375 0.598304 -0.291616
-0.569514 -0.316965 -0.186368
0.475113 0.207853 0.073667
0.297741 0.281508 -0.271505
-0.633638 -0.356081 -0.069064
0.133208 0.181099 0.292823
0.390805 0.507139 0.253036
-0.056892 -0.158430 -0.217603
-0.099529 -0.179736 -0.214211
-0.454843 0.124277 -0.233034
0.503221 -0.248778 -0.225958
-0.309262 -0.766062 -0.150440
0.091205 0.203141 -0.257504
-0.600974 -0.485014 0.173029
0.074116 0.612579 -0.297016
0.291772 0.683622 0.032770
0.779102 -0.541434 -0.163750
-0.175228 -0.187283 0.132263
0.018616 -0.216035 -0.214287
-0.288449 -0.537154 0.169950
-0.628388 0.484174 0.080512
-0.599286 0.591464 0.069128
-0.054622 -0.334948 0.143002
-0.500230 -0.507327 0.173533
0.657038 0.213009 -0.106460
-0.508049 -0.038613 0.333988
0.591029 0.281441 0.062913
0.185872 -0.146909 -0.226179
-0.227601 -0.357095 0.150476
0.212393 0.191469 0.289379
-0.057353 0.377603 0.279456
-0.189672 -0.525673 -0.177617
-0.671342 0.100936 0.119306
0.097759 0.376541 0.068752
-0.086637 0.512317 -0.282279
-0.691027 0.041262 0.108325
-0.608381 0.581573 0.070374
-0.034081 0.488973 -0.281609
-0.289829 -0.264770 0.143358
0.492915 0.036614 0.089865
-0.601615 -0.374595 0.163665
-0.667916 0.529489 -0.266119
-0.368146 0.187186 0.116386
0.707936 -0.089562 -0.087949
-0.568885 -0.740796 -0.044748
-0.688171 -0.042383 -0.125878
0.306527 -0.544283 0.152388
-0.119779 -0.085853 0.120643
0.489033 0.082362 -0.257903
0.438009 0.685859 0.028063
-0.583005 -0.608655 0.120219
0.486983 0.681015 0.027034
-0.748136 0.360269 0.015273
-0.009275 -0.460528 -0.189523
-0.239422 0.057499 0.110298
-0.347710 0.113870 0.108109
-0.421067 0.077625 0.319952
-0.568165 -0.692924 0.139539
-0.512224 -0.187856 0.156679
0.457583 -0.581479 -0.192024
-0.567107 0.496711 0.077406
0.602253 0.498720 -0.267412
0.181345 -0.169807 -0.223802
0.159199 0.621957 -0.300544
-0.257539 0.394255 -0.265489
-0.523553 0.027462 -0.221458
-0.299924 -0.520302 0.168655
-0.231266 -0.344491 0.149356
0.325418 0.334566 -0.277543
-0.042237 -0.280959 -0.206071
-0.398800 0.215005 -0.243626
-0.052204 0.077847 0.308610
0.532810 0.506595 -0.300730
-0.283328 0.137808 0.103792
-0.366907 -0.066967 0.332429
-0.432543 -0.314022 -0.190859
0.423212 -0.519230 -0.197056
-0.031350 -0.641458 0.172259
-0.040105 -0.167406 0.126173
-0.338801 -0.130500 0.337779
-0.457720 0.433354 -0.263169
0.726892 -0.162633 0.058747
-0.732855 0.224786 -0.136707
-0.353205 0.121618 0.203869
-0.544105 0.034409 0.260618
0.008001 0.582290 0.051388
0.408930 0.498005 0.159834
-0.634788 -0.298203 0.110627
-0.727120 0.255355 -0.237495
-0.303681 -0.153272 0.290745
0.036224 -0.523311 -0.184780
0.385144 -0.164873 -0.230538
0.725898 -0.182178 -0.031445
-0.396463 0.389601 0.226367
0.149680 -0.138262 0.117499
-0.051821 -0.429356 0.252948
-0.701738 0.215367 -0.234364
-0.578970 -0.658437 0.030653
0.169147 0.541550 -0.292987
0.566463 0.730810 -0.212200
-0.390398 0.210349 -0.243428
0.028555 0.308434 -0.265877
-0.335481 -0.573853 -0.168431
-0.257765 0.371760 0.164363
0.239667 0.486362 -0.289755
-0.628177 -0.329743 0.140427
-0.534212 0.173636 -0.235425
0.418943 0.145286 0.081508
0.093307 -0.512723 0.361893
-0.686929 -0.066310 -0.183799
0.429058 -0.256192 -0.222957
-0.711942 0.138209 0.004091
-0.281624 -0.456425 0.161847
-0.266650 -0.352048 -0.192232
0.145602 0.447531 0.060342
-0.627087 0.160475 -0.231288
0.137209 0.492187 -0.287180
0.010117 -0.236731 0.131411
-0.733108 0.550291 0.077261
0.420261 0.687343 -0.314950
-0.591423 0.033086 0.123488
0.220451 -0.291947 0.336403
0.040468 0.099117 -0.245775
0.726181 -0.468313 0.132080
0.396946 0.472564 -0.293232
0.596559 0.609301 0.001287
-0.771884 0.512848 0.046884
-0.003716 0.151956 -0.249586
0.255881 0.462747 -0.287943
-0.288902 0.271889 -0.252561
-0.080326 0.401541 0.277821
0.687327 -0.003213 -0.223065
0.165506 -0.125966 0.115811
0.679320 0.009636 0.086782
-0.330230 0.016299 -0.226300
0.185411 0.305042 -0.270359
0.459188 0.119923 0.082753
-0.392437 0.331181 0.106133
-0.444441 0.093898 0.319078
-0.676050 -0.047290 0.115483
-0.751635 0.359411 -0.062424
-0.069753 0.466813 0.073677
-0.241896 -0.151549 0.130815
-0.018623 0.613452 -0.294255
0.190871 -0.156911 -0.225355
-0.384980 0.291786 0.126258
-0.236989 -0.657799 -0.163245
-0.336261 -0.395725 -0.185825
0.500921 0.616976 -0.310545
-0.600493 -0.503042 0.119692
0.178508 -0.340607 0.342448
0.733865 -0.247253 -0.091052
0.516947 -0.585486 0.149959
0.438223 0.427788 0.053292
0.512167 0.021864 -0.252697
-0.412607 0.090995 0.318385
-0.262164 0.393825 0.148356
-0.508278 -0.143480 -0.205212
0.112426 -0.008285 0.311980
0.596175 0.584455 -0.094585
0.204750 0.008581 0.101450
-0.615874 -0.280051 -0.188555
-0.573354 -0.721039 -0.070401
-0.392721 -0.599585 0.179255
0.224766 -0.233733 -0.218883
-0.417639 -0.123134 0.339478
0.501353 -0.360282 0.334464
0.473741 0.030481 0.091053
0.454853 0.412291 0.054297
-0.528225 -0.555922 0.179144
-0.065076 0.612344 -0.292721
-0.507726 0.259704 0.304807
-0.573309 0.174628 0.132174
0.059646 -0.196857 -0.217421
-0.368212 0.219244 0.228122
-0.749858 0.355390 -0.038686
-0.462659 0.521865 0.071741
0.223977 0.502447 0.052567
-0.438462 -0.709733 0.191430
0.524801 0.286907 -0.279002
-0.621640 -0.191563 0.146382
-0.424635 0.456351 -0.266433
-0.064536 -0.376522 0.168047
0.622523 -0.334019 0.185609
0.673510 0.083750 -0.211062
-0.232651 -0.205379 0.135795
-0.783118 0.502043 -0.230986
0.618811 -0.308518 0.196365
-0.527799 -0.366497 -0.182805
-0.464394 -0.235427 0.145846
0.684554 0.081742 0.017552
0.719233 -0.303110 0.116139
-0.111262 0.452190 -0.275643
-0.542236 0.307820 -0.248300
0.370755 -0.198644 -0.226795
-0.550768 0.394688 0.292928
-0.302164 -0.199328 -0.206076
-0.246100 -0.338795 -0.194159
-0.670733 -0.120573 -0.029661
-0.627288 0.530953 0.075904
-0.089199 -0.536935 -0.179599
0.249722 -0.451140 0.351071
-0.478724 0.410817 0.289140
-0.522904 0.577552 0.068144
-0.328381 -0.032764 0.188858
0.612124 -0.362371 0.331269
0.044667 0.219390 0.291796
-0.049589 0.661866 0.045374
0.347035 0.208554 0.077529
-0.417965 0.516557 0.070888
-0.139541 0.115115 -0.241815
-0.062753 -0.221289 0.132137
-0.054095 0.500441 -0.282116
0.695289 -0.036237 -0.169672
-0.142986 -0.381777 0.150293
0.517907 0.270734 0.066204
-0.043070 -0.475734 0.276044
-0.030911 -0.237439 -0.210674
0.037443 -0.626332 -0.174744
-0.592604 -0.568300 0.057758
0.447625 0.145191 0.080637
0.687625 0.075134 0.059768
-0.249485 0.614024 0.056187
-0.161216 0.377043 -0.266762
0.246843 0.545835 0.047622
-0.173026 -0.161336 -0.213754
0.112319 0.530487 0.053252
-0.403640 0.397801 0.102132
-0.282213 -0.127345 0.129686
-0.060735 -0.381779 0.230621
0.560068 0.210489 -0.272612
-0.574011 -0.717544 -0.072086
-0.587160 -0.200169 -0.197247
-0.688467 0.436633 -0.256408
0.326284 0.571313 0.042693
-0.328932 -0.721557 0.189225
0.573584 0.698011 -0.175984
-0.742813 0.267847 -0.197257
0.623579 0.415611 -0.105569
-0.278437 0.213637 0.096227
0.785195 -0.537097 -0.018415
-0.733672 0.227606 -0.144191
-0.592916 0.336726 0.285752
0.626360 -0.319848 0.317502
-0.228948 0.421468 -0.269028
-0.663300 -0.171052 -0.049157
0.601395 0.563012 0.035062
0.464964 -0.604214 -0.190027
-0.411294 -0.540027 0.174001
0.635564 0.335381 -0.132913
0.398995 0.445087 0.258852
-0.046248 -0.449567 0.300577
0.330976 0.659466 0.033929
-0.451021 0.338809 0.295331
-0.394285 -0.194117 -0.203758
0.110512 0.429381 0.063194
0.260453 0.414887 0.266057
-0.568773 -0.489621 0.173905
0.375068 0.219336 0.075614
-0.545401 -0.581259 0.182149
-0.702569 0.107533 0.095882
0.388768 0.507789 0.121089
-0.645747 -0.285959 -0.080045
-0.587011 -0.276577 -0.189780
-0.268939 0.422304 0.104260
0.614547 -0.276103 0.219764
-0.530403 -0.070583 0.182537
-0.195061 -0.086562 0.123023
-0.255657 -0.371032 -0.190713
0.736285 -0.230543 0.019552
-0.754156 0.343523 -0.172290
0.477181 0.574846 0.037717
0.076140 0.226552 0.290130
-0.558732 -0.776680 0.045294
0.331670 0.593235 0.040384
0.412357 -0.005203 -0.246987
-0.371004 0.156985 0.310655
0.133902 0.183649 -0.256908
0.394919 -0.585620 0.153717
0.782524 -0.550079 -0.121234
0.672694 -0.087155 -0.246963
0.129212 0.212948 -0.259629
-0.737462 0.294992 0.012715
0.587810 0.592257 -0.245563
0.667867 0.103683 -0.261140
-0.711089 0.109478 -0.079079
-0.397172 0.246783 -0.246783
-0.534950 -0.692791 0.192734
0.461392 -0.364465 -0.213361
0.767324 -0.389633 0.120566
-0.356368 -0.636901 -0.161625
-0.531597 -0.379014 -0.181464
-0.136421 -0.309646 -0.200375
-0.481360 -0.633208 -0.158150
-0.025002 -0.488317 -0.186323
-0.374561 0.108028 -0.233909
-0.363255 -0.415941 0.160393
0.361676 0.254666 -0.270843
0.407821 0.602639 -0.306286
-0.070553 -0.202921 -0.212833
0.335944 0.030856 0.095245
0.310497 -0.001465 -0.244226
0.727729 -0.243535 -0.208886
0.638104 -0.077384 0.096556
0.436908 0.488773 0.249890
0.072489 -0.080050 0.153384
0.052878 -0.600038 0.165624
0.775505 -0.524293 -0.180030
0.347989 0.629983 0.036290
-0.550690 -0.674670 0.191445
-0.503181 0.297358 -0.248475
0.115877 0.065149 -0.244767
0.036314 0.037814 -0.239653
0.434923 -0.592065 -0.190293
0.064597 -0.412406 0.352965
-0.062556 -0.345123 0.321096
-0.569779 0.195457 0.281015
-0.698242 0.058161 0.014001
-0.618960 -0.360329 0.162803
0.005566 0.238340 0.085095
-0.228067 0.000690 0.115504
0.499747 0.258205 0.067987
0.342276 -0.128020 -0.232827
0.532276 0.213896 0.071321
-0.722784 0.218412 0.055735
-0.634349 0.400680 -0.254553
-0.559798 -0.771632 0.040364
-0.546936 -0.510432 0.175270
0.198644 -0.011829 -0.239780
0.483304 -0.252121 -0.225019
0.086269 0.324331 -0.269203
0.639147 0.275521 -0.267670
0.502895 -0.591011 -0.192482
-0.033139 0.363862 0.074009
-0.091716 0.050374 0.290060
-0.633816 -0.355316 -0.070165
0.170415 0.147215 0.294995
-0.091910 0.015461 0.186729
0.650454 0.290339 0.025920
-0.124915 0.250997 -0.255551
-0.005274 0.018899 0.312934
-0.135051 -0.321412 -0.199267
-0.318738 -0.385542 -0.187358
0.476504 0.546151 0.040543
-0.529772 -0.565964 0.180174
0.285752 0.498763 -0.292382
-0.400399 -0.068961 0.333652
-0.370255 0.021045 -0.225536
0.491332 0.521088 0.042539
0.640717 -0.231259 0.111523
0.163463 -0.057372 0.109166
0.310676 0.069044 -0.251127
-0.326319 0.054765 -0.230181
-0.624165 -0.160680 -0.199973
0.110383 -0.600134 0.163869
-0.248891 0.328621 0.201526
-0.465881 0.292809 0.300286
-0.032420 0.023982 -0.236191
-0.756397 0.423487 0.062067
0.056287 -0.061297 0.318887
0.393939 0.611871 0.036651
0.224044 -0.273243 0.128416
-0.714280 0.316686 -0.243887
-0.634356 -0.380475 -0.170456
0.126936 0.550670 0.050830
-0.367713 -0.393060 0.158293
-0.087893 -0.128922 -0.219537
0.085979 0.556123 0.051553
-0.615025 0.436093 0.164580
-0.604793 -0.522141 -0.039467
0.650055 -0.137274 0.102046
-0.174344 0.152161 0.099044
0.710270 -0.072415 0.022364
-0.592019 -0.367396 0.162667
-0.334652 0.133847 -0.237659
-0.286582 -0.287335 0.145465
0.427882 -0.194275 0.114438
-0.658937 -0.176569 0.024483
0.195883 -0.519297 -0.190073
-0.547363 0.099995 0.321640
0.218487 -0.296001 0.336859
-0.352885 -0.075553 -0.216623
-0.765960 0.485019 0.075103
-0.204737 0.368874 0.284833
0.694735 -0.147951 0.101719
0.583153 0.477861 -0.299465
0.208042 0.505787 0.052729
-0.179944 0.127753 -0.241811
0.047125 -0.513196 -0.186104
0.103492 -0.335762 0.344276
-0.505656 0.453498 0.285793
-0.774137 0.457669 -0.195901
0.135036 -0.445414 -0.195430
0.741970 -0.260093 0.036611
0.051614 0.241151 0.090628
-0.743577 0.304594 -0.083896
0.702955 -0.063628 0.093221
-0.203701 0.163135 0.098872
0.658401 0.229751 -0.018297
-0.540238 -0.650823 0.188793
0.059209 0.270209 0.080333
-0.376522 -0.059401 0.331984
0.752393 -0.317159 0.057675
-0.340200 -0.727602 -0.153252
-0.050870 0.373063 0.145832
0.543205 -0.404618 0.337515
-0.048998 0.384491 0.226096
-0.309196 -0.488071 0.165787
-0.492515 -0.480656 0.170688
-0.568108 -0.694741 0.134351
0.239492 0.181137 -0.259903
-0.727495 0.238286 0.025322
-0.570314 0.559326 0.071381
0.580892 0.282789 -0.280321
0.763738 -0.415911 -0.048698
-0.586733 0.253716 0.124782
0.355947 -0.574423 -0.189595
0.379597 0.264895 -0.272393
-0.688798 0.189653 -0.232247
-0.747231 0.326410 -0.084890
-0.489226 -0.189611 0.348175
-0.231666 0.096252 -0.237143
0.761387 -0.356082 0.112249
0.077724 -0.328489 0.344356
-0.546294 0.018395 0.157389
-0.098867 -0.533223 0.163748
0.396610 -0.056128 -0.241524
0.551156 -0.112952 -0.240710
-0.064772 0.028090 0.313861
-0.084749 0.060882 0.303003
-0.306889 -0.428483 -0.183523
0.606305 -0.233038 0.112753
0.688531 -0.096886 0.096916
-0.604243 0.105259 -0.226589
0.296681 0.189918 -0.262517
0.430279 0.623107 0.034437
-0.077023 0.076915 -0.239998
-0.326492 -0.039636 0.204936
-0.686568 0.019125 0.125367
-0.654865 -0.237288 -0.102881
0.325441 -0.277877 0.125757
0.226740 0.041289 0.097576
-0.543142 -0.389399 -0.180094
-0.593528 -0.576792 0.008074
-0.422722 0.538043 -0.274480
0.040397 -0.106749 -0.225642
-0.417044 0.000730 -0.222113
0.694770 -0.015289 0.088745
-0.295308 -0.267342 -0.199636
0.672716 0.111132 -0.131365
-0.762542 0.381589 -0.216915
0.577273 -0.015318 0.092354
-0.095960 -0.446587 -0.188226
-0.269887 -0.198336 -0.207164
-0.223914 -0.274406 0.142277
-0.130351 0.196923 -0.250096
-0.039500 -0.435293 0.358398
0.324517 -0.314108 0.335376
0.227305 0.437706 -0.284618
0.648086 0.161534 0.072887
0.774721 -0.484010 -0.054611
0.575326 0.741126 0.013337
-0.049800 -0.417413 0.338224
-0.448982 0.002969 -0.221352
0.788598 -0.546819 0.019897
0.127198 -0.135033 0.117873
0.565807 0.767025 -0.098409
-0.382816 0.079826 0.318563
-0.661375 -0.132357 0.128464
-0.614468 -0.405378 0.166092
0.429991 -0.163124 -0.232086
0.408862 0.225261 -0.269416
0.434306 0.080734 0.087349
0.322518 0.732335 0.027063
-0.459895 -0.586798 0.180066
-0.605800 -0.542996 -0.134548
-0.656512 -0.185506 0.044714
-0.259767 -0.094421 -0.217636
0.122334 0.471258 0.058736
-0.238089 0.627526 0.054517
-0.107293 0.428009 -0.273401
-0.694666 0.048380 0.055793
0.029097 -0.660702 0.172286
-0.252862 0.588894 -0.284665
0.035925 0.209799 -0.256458
-0.302652 -0.309572 0.148132
0.157333 -0.184252 0.121761
0.530842 -0.516290 -0.200647
-0.746437 0.305250 -0.142619
0.088258 -0.372979 0.348383
-0.388455 0.397825 -0.261820
-0.614893 -0.004058 0.127840
-0.091480 -0.037376 -0.228378
-0.644972 -0.311582 -0.153918
0.056047 -0.629467 0.168405
0.539509 0.082567 -0.259472
0.647574 0.294533 -0.020744
-0.385385 0.071671 0.319439
0.757609 -0.350022 0.053018
0.037142 -0.511500 0.363497
0.072321 -0.641735 0.169105
-0.030754 -0.287909 -0.205744
0.270829 0.438484 0.263431
-0.392508 0.376457 0.264382
-0.120691 -0.515761 -0.180703
0.068630 0.415278 0.065858
-0.555498 -0.265389 0.151571
0.326488 0.101793 -0.254814
0.614282 -0.293462 0.152847
0.494501 -0.062005 0.099460
-0.280411 -0.675504 0.183232
0.592903 0.594472 -0.129051
-0.418112 -0.444237 -0.178569
0.766251 -0.431752 -0.050966
-0.292696 0.167483 0.101178
0.337563 -0.228288 -0.222877
-0.248732 0.521648 0.065197
0.465957 0.373460 -0.285659
-0.246931 0.012496 -0.228484
0.656169 -0.476692 -0.208365
-0.263371 -0.025307 0.119130
-0.320823 -0.082713 0.173909
-0.590386 0.271750 0.110461
0.678078 -0.321826 0.119232
0.578781 0.686728 -0.104894
0.082309 -0.013822 -0.236015
0.377044 -0.180153 -0.228796
0.015069 -0.014994 -0.233837
-0.143712 -0.533487 0.165150
0.667286 0.106709 -0.262854
-0.644035 -0.269439 0.014790
-0.447724 -0.580174 0.179045
0.314341 0.154374 0.083830
0.017049 0.396185 -0.274105
0.325242 0.155335 0.083401
0.491328 0.213463 -0.270793
-0.686551 -0.015730 0.002740
-0.387667 0.275686 0.299560
0.468635 -0.003178 0.094501
-0.695617 0.020026 -0.064563
0.687519 -0.585065 -0.198730
0.630594 0.372805 -0.106906
-0.405509 0.452275 0.254470
-0.535607 -0.015618 0.265435
0.256217 -0.157036 -0.227348
-0.393313 0.386569 0.282886
0.459872 -0.544666 -0.195694
0.706833 -0.522145 -0.205475
0.467286 0.337699 -0.282203
0.458417 0.470454 0.225401
0.791381 -0.544372 0.087923
0.628440 -0.147323 0.103692
-0.621531 -0.143372 -0.201747
-0.593389 -0.598940 -0.067113
-0.597693 0.199691 0.107389
-0.078825 -0.360605 -0.197160
-0.339414 0.049357 0.243190
-0.248134 -0.669083 0.181614
0.621713 0.391580 -0.230189
-0.499228 -0.219620 -0.198044
0.239354 0.315873 -0.273074
0.460963 0.346078 0.060584
-0.003872 0.177787 0.091306
0.779244 -0.527456 -0.111395
-0.633582 -0.312424 0.086194
0.726505 -0.164291 0.044625
0.751213 -0.325331 0.003645
0.218270 -0.242230 0.125560
-0.359692 0.164738 0.217599
-0.017695 -0.360442 -0.199052
0.485300 0.013303 -0.251035
0.080274 0.692344 0.038408
-0.270095 -0.031804 0.119971
-0.580527 0.003624 0.126034
0.503437 0.030414 -0.253265
0.440221 0.416799 -0.289107
-0.339043 0.050708 0.255886
-0.227687 0.002692 0.115297
0.587688 0.643829 -0.066179
0.600133 0.514247 -0.257863
-0.634128 -0.296892 0.129339
0.440534 -0.528839 -0.196648
0.297506 -0.418106 0.346374
-0.534748 0.089733 -0.227204
-0.351798 -0.661413 0.184045
-0.647038 -0.010875 0.129493
0.631989 -0.367987 0.267750
-0.636168 -0.321171 0.000138
-0.116555 -0.479168 -0.184408
-0.603766 -0.329057 0.159279
-0.031046 0.155735 0.094297
-0.023602 -0.147991 0.123768
-0.226546 -0.478312 0.162297
-0.604420 -0.521629 -0.029707
0.657619 0.218306 -0.075365
-0.734751 0.215956 -0.208330
0.391813 0.374579 0.251058
0.187628 -0.144042 0.116899
0.376896 -0.353893 0.337659
-0.609336 -0.444292 0.138276
-0.638063 0.474206 -0.261629
-0.218141 -0.450688 -0.184076
0.011502 -0.005029 -0.234702
0.298223 0.016166 -0.245574
0.564018 0.742967 -0.221490
-0.488455 -0.090954 0.338505
0.589170 -0.239487 0.319957
-0.481114 0.528040 -0.271710
-0.174607 -0.563310 -0.174399
-0.700258 0.418049 -0.254229
-0.590605 0.388278 0.294778
0.153016 0.239547 0.286500
0.654388 -0.061184 -0.248941
-0.054299 0.416725 0.226712
0.593046 0.583886 -0.163370
-0.450297 0.112637 0.317425
0.401732 0.080506 0.088371
-0.734654 0.215264 -0.208701
0.562082 0.755920 -0.217095
0.105017 -0.302430 0.134923
0.714152 -0.264929 -0.230852
-0.623068 0.041464 -0.219773
0.225407 0.138539 0.216196
0.615264 0.434362 0.047216
-0.088190 -0.525138 0.162629
-0.392327 -0.390188 0.158767
-0.140365 -0.274640 0.139736
-0.270177 -0.306014 -0.196625
-0.278183 -0.000492 -0.226255
0.290394 -0.090809 0.108540
0.431022 0.213711 -0.268966
0.244194 -0.532191 -0.190295
0.606748 0.303872 -0.283176
-0.621190 -0.418867 -0.024969
0.596519 0.073222 0.083105
0.474956 -0.522574 -0.198317
-0.052042 0.656246 0.045999
-0.308624 0.014061 -0.226744
-0.680979 -0.014973 0.124326
-0.080831 -0.109175 -0.221684
-0.587638 -0.578037 -0.160283
0.066572 0.493606 -0.285151
0.128303 0.434393 -0.281255
0.425054 -0.583463 0.152582
0.619942 -0.293276 0.274291
0.094264 0.511708 0.055642
-0.542484 -0.102859 0.135279
-0.451717 -0.338721 -0.187856
-0.377294 -0.498185 -0.174547
-0.173520 -0.163670 -0.213511
0.207823 -0.079019 0.109921
0.368296 0.560684 0.042443
0.153747 -0.546670 -0.186103
0.138511 -0.376061 0.347142
-0.163961 -0.665575 0.178687
0.217243 -0.057283 -0.235906
-0.177498 -0.659813 -0.164874
0.755032 -0.338616 0.038257
-0.395203 -0.030807 -0.219700
0.286344 -0.285024 0.127656
-0.474968 0.483680 0.075852
-0.728486 0.404649 0.091361
0.627627 -0.283771 -0.226354
-0.040935 0.375879 0.073073
0.139866 0.013494 0.130365
0.391655 -0.091716 -0.237892
-0.777092 0.527307 -0.013222
-0.681208 -0.081405 -0.114982
0.722504 -0.154683 -0.006857
-0.277678 0.407901 0.077208
-0.635617 -0.343071 -0.065380
0.739839 -0.279544 -0.077502
0.438001 -0.588713 -0.190715
-0.067102 -0.351261 0.202417
-0.611102 -0.500545 -0.097905
0.194783 0.093669 0.183588
0.557995 0.139620 0.077795
-0.260487 -0.372844 -0.190388
0.229238 0.302458 0.278009
0.387659 0.350146 -0.280977
0.469514 -0.606774 -0.189916
-0.003463 0.526055 -0.286175
-0.589309 -0.363110 0.162165
-0.245743 -0.266641 0.142188
0.795016 -0.552730 0.136004
-0.367829 -0.711180 0.189404
-0.605972 -0.488671 0.053465
-0.522961 0.338174 0.297601
0.721210 -0.124212 0.073049
-0.377712 0.261099 0.173073
0.334290 -0.657685 -0.180788
-0.547362 0.075678 -0.225443
0.008157 0.050248 -0.240004
-0.420167 -0.487662 -0.174260
-0.551549 -0.733431 0.197218
0.525304 -0.026902 0.095082
0.429951 0.425058 -0.289600
-0.005914 0.269717 0.082380
-0.382138 -0.443954 -0.179701
-0.614598 0.146602 0.113099
0.198430 0.280748 0.281078
0.028684 -0.576334 0.164049
0.114182 0.336277 0.278233
-0.228783 -0.485720 -0.180323
-0.289225 0.344302 -0.259632
-0.187403 -0.418404 -0.188176
0.562322 0.750966 -0.229457
0.448468 0.445580 0.091455
-0.579828 -0.694256 -0.114045
-0.648319 -0.296492 -0.172091
0.473351 0.096465 0.084613
0.548615 0.523801 0.040516
0.605069 0.204479 0.070008
0.134652 -0.213354 0.125303
0.711505 -0.064184 0.077772
-0.139766 -0.604863 -0.171405
0.169711 0.058808 0.191195
0.415741 0.439717 -0.290597
0.707271 -0.051822 0.031041
-0.002238 0.571079 -0.290615
-0.320018 -0.111011 -0.214164
0.007754 -0.570256 0.164097
0.049916 0.238462 0.085115
-0.016642 -0.386945 -0.196492
0.469417 0.512471 -0.299359
0.108816 -0.416337 0.351992
0.093978 -0.524723 -0.186415
-0.635219 0.236010 -0.238424
-0.254505 0.358451 -0.262081
-0.301285 0.551368 0.063903
-0.557865 -0.164803 0.141808
-0.557028 0.429438 -0.259738
0.135115 -0.309369 0.340725
-0.198058 0.482007 0.273565
0.249700 0.228294 0.284633
-0.353076 -0.655100 -0.159946
-0.780699 0.512156 -0.143671
-0.046689 0.109216 -0.244087
-0.719403 0.165559 -0.058620
-0.430535 -0.686367 -0.154511
-0.634522 -0.223311 0.149882
0.623706 -0.353739 0.141260
-0.561960 -0.783575 -0.047909
-0.221583 -0.425910 -0.186393
0.427828 0.594119 0.037347
0.559557 -0.155129 -0.236844
0.077508 -0.235359 0.129208
0.639527 -0.423981 -0.213009
-0.698697 0.358791 0.094931
0.443334 0.396600 0.056185
0.495943 -0.400080 0.338522
-0.217641 -0.453455 0.159593
-0.663033 -0.094299 0.138142
-0.344655 0.518282 -0.274943
0.599310 0.580427 -0.041880
-0.130752 -0.641587 -0.168090
-0.695549 0.020612 -0.061040
0.737076 -0.549454 -0.203733
-0.660761 0.330687 -0.246898
-0.108890 -0.081910 -0.223489
0.338982 -0.147499 0.112592
0.059890 0.101874 0.302820
0.589678 0.650310 -0.000849
-0.476855 -0.742435 -0.147607
-0.386010 -0.320396 -0.191664
0.336390 0.371350 0.267984
-0.417018 0.104452 -0.232256
0.021861 -0.174568 -0.218441
-0.443916 0.388450 0.290259
-0.702461 0.557930 0.075573
-0.414260 0.309716 0.297048
-0.465592 0.326606 0.296972
-0.677400 -0.097247 -0.089624
0.551879 0.162231 -0.267641
0.290431 -0.288489 -0.215544
0.659065 -0.366418 -0.219237
-0.040849 0.313080 0.079212
0.100694 0.001205 0.311412
0.185984 -0.381977 0.346264
-0.688858 -0.029026 -0.093397
0.353874 0.090368 0.088876
0.095248 -0.049520 0.126065
-0.172726 0.097215 -0.239046
-0.035553 -0.499554 0.352415
-0.339167 -0.460646 -0.179388
0.015166 -0.560103 0.162877
-0.465911 -0.416133 0.163563
-0.552509 0.046984 0.125639
-0.698146 0.120882 0.118178
-0.670795 -0.115556 -0.013283
-0.339035 0.281023 0.091497
-0.080990 -0.267473 -0.206200
0.717894 -0.306790 0.116540
-0.446514 -0.463804 0.167629
0.218543 0.582173 -0.298475
0.530796 0.359121 0.057166
-0.461328 0.478183 -0.267442
-0.768849 0.501071 0.070100
-0.722468 0.222657 0.077467
0.530846 0.763294 0.017642
0.626193 0.428320 -0.004940
-0.048379 0.391292 0.263309
0.146120 -0.595168 0.162287
-0.430452 0.130057 -0.234348
0.183965 0.417929 -0.281354
-0.509574 -0.177897 0.248361
-0.499355 -0.601485 0.182714
-0.060304 -0.355499 0.332541
0.472129 -0.230483 0.116621
-0.583959 0.272858 0.251525
-0.691567 0.008963 -0.017160
-0.205800 0.366315 0.285116
0.078312 0.081432 0.304254
0.276324 0.242717 0.282406
-0.249431 -0.250727 -0.202668
-0.437121 -0.331494 -0.189010
-0.656230 0.126552 0.116337
-0.739005 0.393313 -0.250621
0.462626 -0.111388 -0.238146
0.683785 0.019679 0.085663
0.693468 -0.030459 -0.188150
0.599374 0.181872 -0.271020
0.302426 -0.337144 -0.211154
0.028398 0.513885 0.057451
-0.566320 0.438204 0.289151
-0.359531 -0.187055 -0.205516
-0.358895 -0.541780 0.172565
-0.035163 -0.363660 0.351260
-0.599627 -0.529130 0.046119
0.002123 -0.577283 0.164957
-0.586654 0.290212 0.255261
-0.746547 0.371554 0.089011
0.624300 -0.329122 0.240815
0.509615 -0.266674 0.325057
0.136872 0.088011 -0.247647
-0.432822 -0.050257 -0.216643
-0.388688 -0.306244 0.150447
-0.575751 0.112168 -0.228139
0.393266 -0.418411 0.343465
-0.494527 -0.384925 0.161389
-0.375199 0.337142 -0.256293
-0.329849 -0.040012 0.131948
-0.246000 -0.537595 -0.174722
0.627596 0.353632 -0.238545
-0.230414 -0.403771 0.155126
-0.000088 -0.652773 0.172406
-0.112295 -0.142440 0.125947
0.018691 0.274732 -0.262279
0.304816 0.646528 0.035997
-0.125833 0.606975 -0.290332
0.442128 0.116644 0.083598
-0.475386 0.216773 -0.241448
0.557320 0.727418 -0.323075
-0.657627 -0.205512 -0.049689
-0.356331 0.091100 0.316648
-0.347934 -0.056322 -0.218655
0.508514 0.229704 -0.272908
0.191894 0.541303 -0.293661
0.724549 -0.219786 -0.192936
0.640723 0.298524 -0.152861
0.522441 -0.207649 0.112844
-0.532583 -0.067527 0.146812
-0.123615 0.282235 -0.258645
-0.023815 0.516094 0.058837
0.081024 -0.493501 0.360390
-0.193100 0.025836 -0.231441
0.583761 0.567385 0.035175
0.522654 0.098979 0.082854
0.515985 0.165643 -0.266873
0.532074 0.226796 -0.273347
-0.196228 -0.083512 -0.220652
0.258050 -0.005167 0.101158
-0.311140 -0.127865 0.221204
0.652791 -0.334824 0.121279
-0.313565 -0.431399 0.160380
-0.634278 0.397828 0.089136
0.406956 0.132072 0.083168
-0.752423 0.375389 -0.022846
0.659010 0.203971 -0.096272
0.426417 0.571695 -0.303830
0.320757 -0.565253 0.154002
-0.353499 0.521685 0.068408
0.510017 0.005477 -0.251028
0.751344 -0.490095 0.133438
-0.578768 -0.015405 0.127841
0.302602 -0.058362 0.104993
-0.120355 0.577602 -0.287628
0.671134 0.117480 -0.142741
0.065777 -0.318849 -0.205681
-0.335267 -0.383897 0.156401
-0.673418 0.319862 -0.245451
0.101728 0.402472 -0.277318
0.096371 0.431521 0.063418
0.051449 0.523332 -0.287594
-0.325684 -0.020722 0.288919
0.083017 0.523310 0.054853
0.751000 -0.355938 -0.108905
0.174129 -0.626373 -0.178935
0.332922 -0.117142 -0.233603
0.112675 0.482948 -0.285524
0.004380 -0.197822 0.127782
0.582849 -0.058757 -0.246983
0.479000 0.607204 0.034497
0.766289 -0.442195 -0.086991
0.543569 -0.560696 0.146718
0.778008 -0.473614 0.052215
-0.106357 -0.086129 -0.223155
0.390562 0.666056 -0.311957
0.201624 -0.116209 0.113748
-0.040645 -0.711274 -0.164041
0.241158 -0.210454 0.121751
0.661420 0.183108 -0.118451
-0.481216 -0.134118 0.342503
0.723719 -0.158790 0.004576
-0.377391 -0.092711 0.335268
-0.521374 -0.021853 -0.216703
0.474598 -0.002469 -0.249164
-0.505015 0.553628 -0.273478
-0.066331 0.495519 0.247997
-0.295340 0.545413 0.064303
-0.301721 -0.560974 0.172687
0.288789 -0.507122 0.149298
-0.596048 0.307892 0.117162
0.540834 0.716411 -0.321493
-0.337292 -0.275340 0.145848
-0.035604 -0.510729 -0.183806
-0.517741 -0.566085 -0.163597
0.557042 0.685297 0.024465
0.566452 0.602303 -0.311121
-0.244205 0.461410 -0.272465
0.258342 0.314816 0.275907
0.311832 -0.516425 -0.193912
-0.620758 0.463574 -0.261120
0.762052 -0.431934 0.127422
-0.081163 -0.449323 -0.188413
0.752193 -0.389246 -0.200988
0.693396 -0.003757 -0.095452
-0.220259 -0.647548 0.178652
0.464785 0.358278 0.059274
0.483276 0.489002 0.045924
0.143148 0.033604 0.306941
-0.023538 -0.579346 0.165946
0.303752 -0.193472 0.118169
-0.225955 -0.697682 -0.159683
-0.398707 0.441594 -0.265786
-0.496039 0.515757 -0.270051
-0.576171 0.184935 -0.235242
-0.210474 -0.079944 0.122849
0.358604 -0.314799 0.334397
0.279757 -0.005640 -0.242875
-0.068516 0.485207 0.164974
0.599657 -0.340248 -0.219973
-0.143551 0.618896 -0.290954
-0.098816 0.035127 0.193782
-0.299300 -0.726043 0.188754
0.773846 -0.433129 0.106261
-0.775615 0.487953 -0.120569
-0.612928 -0.498233 -0.128707
-0.054367 -0.410915 0.263706
0.400781 0.386366 0.235810
-0.272167 -0.498179 -0.177774
-0.672084 0.219987 -0.235726
-0.469547 -0.614349 -0.160356
0.081356 0.217219 0.290883
-0.618763 0.560171 0.072786
-0.658809 -0.162506 0.076852
0.552490 0.161374 -0.267576
0.203025 0.527040 -0.292608
-0.010324 0.538041 -0.287136
0.031315 0.480612 0.060615
0.281716 -0.493362 -0.195243
0.674001 -0.022474 0.090085
-0.561017 -0.522881 -0.166493
0.733015 -0.198599 0.062499
0.618210 -0.316716 0.154628
0.613894 -0.553636 0.143869
0.739557 -0.306443 0.115841
-0.686538 -0.023256 -0.023534
0.706259 -0.186356 -0.238293
-0.529652 0.512068 0.074755
-0.506006 -0.172078 0.345048
-0.293222 0.205721 -0.245958
-0.205443 0.141585 -0.242381
-0.652530 -0.238216 -0.056321
0.291323 0.448469 -0.287635
0.603232 0.337440 -0.286350
-0.510620 -0.046574 -0.214616
-0.572724 0.175604 0.148119
-0.736669 0.238584 -0.169394
0.388739 0.368005 0.209865
-0.032881 0.123753 -0.245933
0.175048 0.140308 0.295528
-0.341122 0.312480 -0.254928
-0.689480 -0.040912 -0.148621
0.191386 -0.345355 0.342517
0.326179 0.393791 -0.283358
0.675605 0.134062 0.011191
0.359729 -0.513057 0.147702
-0.589376 -0.217294 0.147908
-0.120817 0.124693 0.100087
0.131456 0.648790 -0.302317
-0.668239 0.093942 0.119894
0.414592 0.049858 -0.252440
0.497925 0.200068 0.073728
0.385047 -0.000915 0.096845
-0.369103 0.613219 0.059936
-0.214343 -0.128394 0.127705
0.125992 -0.614257 -0.178642
0.063204 0.360547 -0.272036
-0.671540 -0.136301 -0.102375
0.381258 -0.036962 0.100486
-0.510054 -0.168384 -0.202722
0.376339 -0.128069 0.109546
-0.691283 0.028607 0.058212
0.314335 0.130563 0.086159
-0.374491 0.250142 0.203150
-0.038150 -0.200113 -0.214102
-0.566854 -0.774976 -0.122017
0.128561 -0.566340 -0.183407
-0.066845 -0.634886 0.172706
0.074933 0.277118 -0.264238
0.333305 -0.367185 -0.209164
0.722242 -0.495565 -0.208547
-0.406234 -0.536432 0.173495
0.622915 0.445321 -0.014896
0.428276 0.422408 0.187401
-0.300035 -0.391170 0.156031
-0.100416 -0.421302 0.152851
-0.616989 -0.481415 -0.156031
-0.334959 -0.007577 0.137364
-0.363238 -0.395228 -0.185046
-0.326809 0.261010 -0.250334
-0.427940 -0.193019 -0.202833
-0.475162 0.010491 0.328177
-0.633914 -0.146114 -0.201098
0.696405 -0.025530 0.089696
0.761170 -0.561739 -0.203271
0.393856 -0.429672 -0.204912
0.606213 -0.571886 0.145890
-0.369294 -0.298073 0.149053
-0.772287 0.504354 0.008328
-0.645876 -0.073580 -0.207824
0.261174 -0.081473 0.108524
0.749815 -0.340102 -0.078302
-0.615448 0.342135 0.094005
0.631021 -0.005035 -0.253714
-0.225847 0.069705 0.108687
0.355284 0.524895 0.063912
0.031744 0.200640 -0.255434
0.452477 -0.298710 0.329943
0.601524 0.517891 -0.215308
-0.726735 0.215387 -0.039260
-0.201384 -0.020519 -0.226654
0.158825 0.387116 0.271892
-0.289801 0.087886 -0.234541
-0.190337 0.522380 0.269381
-0.026610 -0.615746 -0.173813
0.611966 0.511137 -0.016317
0.273721 -0.262962 -0.217527
-0.191004 -0.484539 -0.181598
0.593893 0.561149 -0.225521
0.037936 -0.061567 0.319181
-0.596301 0.343815 0.238528
-0.359139 0.155419 0.196518
-0.074361 0.641200 -0.295258
-0.019728 0.246703 -0.258359
0.621909 0.418442 -0.131215
-0.593932 -0.540004 0.129270
-0.484256 0.143247 -0.233986
-0.011596 -0.512321 -0.184388
-0.254273 -0.223871 0.138267
-0.117214 -0.394010 -0.192715
-0.399551 0.395594 0.181612
0.196224 0.154513 -0.255972
0.491445 -0.460042 -0.204938
-0.488643 0.136350 0.316283
0.616865 0.467720 -0.064962
0.146082 -0.276307 0.131108
-0.110071 -0.441826 -0.188259
0.688713 -0.059980 0.093301
-0.576836 -0.290546 -0.188727
0.776486 -0.466445 0.045039
-0.078843 0.549599 -0.286163
-0.576190 -0.723457 -0.139459
0.195504 -0.032291 -0.237683
0.392529 -0.194371 0.115532
-0.360543 0.242393 -0.247478
-0.031248 0.509060 0.059753
0.613839 -0.267898 0.233596
0.496885 0.297315 0.064250
0.477540 -0.586931 -0.192103
-0.693004 0.043306 0.073349
0.368728 -0.018074 0.099024
0.106411 0.702448 0.036618
0.223165 0.514755 -0.292025
-0.138718 -0.582577 0.169797
0.680116 0.098505 -0.018017
-0.326542 0.165628 0.102398
0.660424 0.234843 0.042863
0.562609 0.751351 -0.221969
0.540697 0.547642 0.038427
-0.654170 0.114742 -0.225985
-0.392477 0.374926 -0.259458
0.024308 0.354875 0.073125
-0.283685 -0.672444 -0.160380
0.722440 -0.166100 -0.048508
-0.496213 0.414261 -0.260121
-0.610717 0.428272 0.228915
-0.565620 -0.043505 -0.213228
-0.095308 -0.664494 -0.166938
-0.664049 0.303514 0.099273
0.658846 0.086200 -0.263489
-0.119869 0.416621 -0.271901
0.643202 0.199094 -0.274049
0.201611 -0.403997 0.347938
-0.731698 0.236190 -0.071771
-0.263292 0.053243 -0.231967
0.536039 -0.421834 0.339418
-0.591295 0.313045 0.236778
0.459549 -0.244644 -0.225022
-0.402897 0.473149 -0.268743
-0.065601 -0.603353 0.169584
0.399727 0.463014 -0.292384
0.285624 0.543796 -0.296781
0.061303 0.019330 0.310849
0.265468 -0.053573 -0.237749
-0.648121 -0.283567 -0.122257
0.353214 -0.579682 0.154417
0.725119 -0.201740 -0.117108
0.714149 -0.096286 0.020922
-0.428859 0.149394 -0.236288
-0.737385 0.296991 0.021430
0.571599 0.290562 0.062618
0.488618 -0.444886 0.343128
-0.469998 -0.239016 -0.197044
-0.408478 0.454757 0.199864
0.413430 -0.086902 0.104382
-0.589930 0.271405 0.118977
0.628814 -0.354168 0.248750
-0.079875 0.533076 0.091474
0.646666 -0.167857 -0.238273
-0.338474 -0.681538 -0.157809
0.107518 -0.668631 -0.172758
0.200281 -0.301189 -0.211535
0.687767 0.034510 -0.080552
0.673013 -0.391404 0.126191
0.413267 0.450643 -0.291590
-0.259318 -0.046323 -0.222353
-0.043063 -0.440735 -0.190422
0.424639 -0.285283 -0.219976
0.017938 -0.570385 0.163797
0.686509 0.054794 -0.035818
0.197450 -0.667576 -0.175621
0.406769 -0.089455 -0.238577
0.468536 0.640245 -0.311826
-0.667968 -0.155884 -0.095255
0.378397 -0.458150 -0.201653
-0.022164 -0.275017 -0.207268
0.095481 -0.239737 0.129085
0.489532 -0.170421 -0.233200
0.676622 -0.012638 -0.254370
0.046824 0.333416 0.074532
-0.352755 0.191909 -0.242781
-0.167832 0.265886 0.087723
-0.649180 0.177700 -0.232294
0.399176 -0.221252 0.117957
0.504330 -0.188167 -0.231918
0.610304 0.491618 -0.120648
0.199927 0.378787 0.271445
0.342548 -0.138125 0.111566
0.247405 -0.375389 -0.205726
-0.645835 -0.256716 0.021270
-0.076385 -0.310083 0.141238
-0.607435 -0.480312 0.051746
-0.651402 -0.264816 -0.126113
-0.611067 -0.308758 -0.185895
0.010948 -0.703693 -0.166366
-0.065562 -0.338944 -0.199685
0.207669 0.491161 -0.289242
-0.366447 -0.551307 0.173728
-0.480067 0.515067 -0.270473
-0.395145 -0.448615 0.164567
0.533380 -0.304169 0.327994
0.447994 0.077294 0.087265
0.154305 0.288401 -0.267777
-0.072712 0.460723 0.271800
0.362160 0.324407 0.096318
-0.011004 -0.067720 -0.227881
-0.688821 -0.015828 -0.046046
0.630215 -0.384335 0.172201
0.702499 -0.066982 -0.124303
-0.063117 -0.214740 -0.211905
0.609879 0.530185 0.006367
-0.331305 -0.583654 -0.167600
-0.584910 0.285616 0.276264
0.596347 0.535292 -0.264397
-0.438728 0.465238 0.282591
-0.543924 -0.699192 0.193636
-0.629127 0.465233 -0.261026
0.584128 0.639972 -0.155762
0.558415 0.173716 -0.268965
0.534343 0.009067 -0.252126
0.252023 -0.125009 -0.230351
0.688569 -0.004800 -0.202155
-0.269480 -0.400084 -0.187448
0.722467 -0.159043 -0.023029
-0.202710 0.268215 -0.254847
-0.290182 0.459464 0.072549
0.764938 -0.427739 0.126923
0.439875 0.433668 0.094730
-0.600205 0.333068 0.117287
0.585974 0.642498 -0.107465
0.605337 0.559269 0.035307
0.140336 -0.146128 -0.224858
0.575424 0.510191 0.041024
0.720915 -0.216014 0.107571
-0.520048 -0.673476 0.190388
-0.583965 -0.657798 -0.073679
0.730371 -0.205847 -0.019518
0.259010 0.387680 -0.280699
-0.714762 0.126456 -0.097554
-0.059816 -0.356958 0.337805
0.378796 -0.474879 -0.200030
-0.522803 -0.587724 0.182088
-0.101790 0.258966 0.086373
0.224994 -0.336996 -0.208792
0.436325 0.029749 -0.251140
0.565378 0.750506 -0.165862
0.162236 0.282200 -0.267415
-0.739792 0.267486 -0.134055
0.666479 0.125709 -0.213033
0.225810 -0.030203 0.104596
0.115156 -0.636047 -0.176179
0.707098 -0.110633 -0.180190
-0.181029 -0.401783 0.153416
0.418612 0.702799 -0.316411
-0.144709 -0.437678 0.155812
0.600710 -0.419583 0.337214
0.555032 -0.352672 0.332072
0.545980 0.362917 0.056329
-0.749783 0.333420 -0.114614
-0.358610 0.317361 0.088545
0.791664 -0.540195 0.108699
0.303085 0.651033 0.035610
-0.047791 0.369844 0.200170
-0.752396 0.400152 0.065097
0.278285 0.531452 -0.295349
0.471265 0.208627 -0.269704
0.019902 0.202218 -0.255225
-0.466103 -0.559200 0.177558
0.778083 -0.536345 0.137140
-0.169553 -0.322496 0.145311
0.300484 -0.021689 -0.241942
-0.658397 0.471681 -0.260758
0.651250 0.277758 0.061425
-0.587559 0.176245 -0.234043
0.167001 0.312697 0.278918
0.141934 0.066272 -0.245677
-0.764905 0.475453 0.063869
-0.191751 -0.366321 0.150278
0.111562 -0.074489 0.112433
-0.459677 -0.683125 -0.153934
-0.591048 -0.603041 -0.031623
-0.600898 -0.430732 0.169133
-0.731309 0.258770 0.016211
-0.227900 -0.404239 0.155095
-0.562560 -0.734721 0.111683
0.026277 0.074292 0.306549
-0.705155 0.497870 0.081529
0.722664 -0.383578 0.123902
0.438222 0.041403 0.091075
-0.405285 0.410090 0.110394
-0.339268 -0.756293 -0.150475
-0.351870 0.130196 0.262632
-0.175494 -0.269296 -0.203122
0.244628 -0.505162 -0.192951
0.682495 -0.484580 0.135012
-0.606811 -0.470449 0.099865
0.612320 -0.516179 -0.203158
-0.684997 -0.041519 -0.055086
-0.051453 0.387154 0.183102
-0.261261 -0.715383 -0.156869
-0.282031 0.164018 -0.242224
0.766875 -0.393620 0.096918
0.746916 -0.521919 -0.206727
0.634317 0.387858 0.025664
0.732970 -0.489316 0.133926
-0.163327 -0.615045 -0.169686
-0.337564 0.007283 0.134216
0.485697 -0.212607 0.114456
0.334050 -0.153348 0.113316
-0.220566 0.450451 0.277342
-0.513649 -0.240685 0.147871
-0.061499 0.435062 0.137773
-0.615852 0.406184 0.087754
0.052598 -0.144214 0.121060
0.414032 0.159104 0.080308
-0.419125 0.189478 0.308955
0.053654 0.569483 -0.292174
-0.364146 0.073176 0.318640
-0.574836 -0.643780 0.170607
-0.350566 -0.450392 -0.180040
-0.245693 0.403275 -0.266735
0.661789 0.195439 -0.067069
0.689696 -0.019927 -0.231484
-0.595309 0.456031 0.288297
0.239207 -0.568342 -0.186606
0.074950 -0.219331 -0.215694
0.437149 -0.153565 0.110173
-0.040959 -0.409149 -0.193575
0.247008 -0.445119 -0.198895
0.486752 -0.437728 0.342485
-0.014626 0.296619 0.080016
-0.277026 -0.060141 -0.220458
0.721707 -0.175361 -0.096821
-0.504874 -0.098514 0.339748
-0.403080 0.562651 -0.277489
0.364249 0.065582 0.090981
-0.656643 -0.211349 -0.049294
-0.254735 0.383336 0.269886
-0.411583 0.477349 0.213329
-0.313089 0.454412 0.073746
0.383020 -0.025929 -0.244060
0.430714 -0.296519 -0.219064
-0.683852 -0.031845 0.003485
-0.182422 -0.188028 -0.210856
0.440902 -0.258426 0.120311
-0.034540 -0.510544 0.335247
-0.669688 -0.114690 0.013408
0.326716 0.629203 0.037019
0.532645 0.126873 -0.263594
-0.037837 -0.526915 -0.182155
-0.088968 -0.454040 0.155701
-0.654328 -0.198588 0.045140
0.058484 0.290622 -0.265054
0.161232 -0.152685 0.118555
-0.491302 0.458963 -0.264642
-0.774725 0.495871 -0.073648
0.343913 -0.400493 -0.206233
-0.565276 0.125757 0.131152
0.579384 0.035727 0.087298
-0.365131 0.343604 -0.257234
-0.138378 0.267431 -0.256745
-0.579532 0.427608 -0.258869
0.577949 -0.357008 0.331793
-0.254759 -0.049905 -0.222142
-0.654350 0.555479 0.074337
-0.268117 0.448874 0.215557
-0.561799 -0.182486 -0.199755
-0.235392 0.530698 0.063902
0.658014 0.231334 -0.020971
-0.672443 -0.065657 0.127648
-0.726039 0.213924 -0.029563
-0.702455 0.083253 0.012631
0.272654 0.659669 -0.307714
-0.468178 0.073045 -0.227615
-0.405206 -0.336443 -0.189506
-0.000478 0.331259 -0.267218
-0.599024 -0.504921 0.144408
-0.319364 -0.580163 0.175105
-0.604689 -0.486967 0.086868
-0.727992 0.274635 -0.239354
-0.016032 0.297143 -0.263405
0.242693 -0.177704 0.118501
-0.286910 0.182132 0.099568
0.084511 0.456828 -0.282105
0.572025 -0.400671 0.336245
0.355212 -0.509546 -0.195916
0.367196 0.193974 0.078336
0.325095 0.189103 -0.263309
0.061971 -0.363177 -0.201229
-0.175689 0.151174 0.099182
0.284636 -0.391510 0.344169
0.647545 0.244490 -0.197952
0.282303 -0.598054 0.158389
-0.383917 0.453648 -0.267418
-0.732371 0.228513 -0.113218
0.305188 0.592571 -0.302151
-0.643245 -0.298681 -0.071541
0.552288 0.260923 -0.277304
0.386153 0.670232 -0.312230
-0.664113 -0.155816 -0.012744
0.319887 -0.244056 0.122620
0.554670 0.643098 -0.314749
-0.661864 -0.160265 0.019566
-0.377078 0.496984 0.071547
-0.161122 0.142266 -0.243807
-0.399727 0.398079 0.186619
-0.690116 0.009885 0.017057
0.648605 -0.497382 0.137303
-0.075255 -0.200474 -0.212928
0.611579 -0.230764 0.316419
0.154490 0.326381 -0.271497
0.324966 -0.277799 0.331812
-0.273105 -0.481119 0.164000
