-0.206893 -0.336488 0.291090
0.163343 0.592769 0.241553
-0.473211 -0.358388 -0.241274
0.406545 0.223241 0.309759
-0.238635 -0.185173 -0.239557
-0.062889 -0.430007 0.057991
0.165860 0.585180 0.349824
0.567995 -0.363704 -0.148558
-0.456474 0.203175 0.177806
-0.156635 0.868309 -0.046257
0.015401 0.075689 0.266142
0.344577 0.143190 0.267066
-0.359999 -0.131325 0.332233
-0.551040 -0.151089 -0.206678
0.436765 -0.279604 0.240231
0.435998 0.283861 -0.238487
-0.749564 -0.232881 0.118473
0.116290 0.630850 0.357739
-0.074970 0.585785 -0.152015
-0.225823 -0.134459 0.112031
0.015503 -0.070278 -0.247361
0.281896 -0.538207 0.143093
0.020113 -0.737670 -0.336420
0.016155 0.869140 0.223364
-0.695517 -0.111894 -0.188361
0.028971 0.910137 0.120214
0.227469 -0.317963 -0.299494
-0.378741 -0.561880 -0.201544
0.125103 0.216995 0.126862
-0.400617 0.111158 0.160516
-0.036567 -0.738546 -0.331392
0.056213 -0.546795 -0.314345
0.333770 0.243692 -0.234545
-0.621489 -0.339701 -0.132459
-0.343941 -0.593556 -0.215069
-0.149670 -0.178332 0.099293
0.760148 0.248664 -0.247670
-0.006929 0.864006 -0.121238
0.696251 0.188007 -0.274837
0.024151 -0.426655 -0.295478
0.808855 0.198910 -0.154855
0.709637 0.014472 0.046915
-0.595210 -0.123131 0.313073
0.599664 0.282343 -0.253542
-0.091625 -0.041048 0.319868
0.142453 0.327719 0.334256
0.178341 0.223851 -0.223074
0.551248 -0.067712 0.050374
-0.280307 0.352812 -0.164322
-0.636311 0.101437 0.180615
0.846210 0.167026 -0.212999
0.315559 0.200163 -0.238673
-0.254759 0.629007 0.216057
-0.081347 -0.835418 -0.258486
0.090365 0.083431 0.112275
0.379676 0.430545 -0.213894
-0.312861 -0.625296 -0.155998
0.496464 0.480103 0.031552
-0.481766 -0.341095 -0.238201
0.637534 -0.134944 0.033614
-0.475362 0.110999 -0.178737
0.646402 -0.176175 0.027333
0.357713 0.573346 -0.192934
-0.268302 0.332447 0.177899
-0.493350 0.110179 0.168802
0.434844 -0.012783 -0.277781
0.070116 0.230869 -0.212320
0.173068 -0.010148 -0.253675
-0.051591 -0.864011 -0.238958
-0.292112 0.251419 0.169298
0.458002 0.409542 -0.223792
-0.229334 -0.598668 0.050696
-0.260188 -0.677797 -0.082509
-0.383416 -0.282703 0.106644
0.130737 0.617719 0.351712
0.399038 -0.095544 -0.285524
0.149851 -0.650988 -0.336681
0.541067 0.123932 0.076752
0.034542 0.209053 -0.211989
-0.079269 0.783399 -0.125379
-0.779710 -0.203539 0.090971
-0.330237 -0.577219 0.062701
-0.780179 -0.198798 0.002208
0.041500 -0.557454 0.239199
-0.465557 -0.311730 -0.235772
-0.237484 0.768024 -0.113062
0.283636 0.187521 0.108560
0.053249 0.515990 -0.172921
-0.410241 0.579993 0.006772
-0.308108 -0.459187 0.176296
0.393009 0.564080 -0.197368
-0.500243 0.050512 0.323278
-0.115892 0.525298 0.189680
-0.689567 -0.281834 -0.021485
-0.012216 0.497899 0.384242
-0.111484 -0.076304 0.316987
-0.327023 0.311033 -0.165632
-0.125465 0.581175 0.240619
-0.311921 0.474965 -0.145230
-0.641615 0.343041 -0.057495
-0.913903 -0.075015 0.011609
-0.114324 -0.122040 0.311171
0.195134 -0.631535 -0.338207
-0.275787 0.527730 -0.141501
-0.401802 -0.182542 -0.224400
-0.467800 -0.492256 0.068934
-0.341397 0.306837 0.181131
-0.076935 -0.675881 0.215841
-0.415115 0.276300 -0.162250
-0.148354 0.509026 -0.155550
-0.594445 0.086461 -0.171189
-0.177266 -0.748196 -0.219448
0.794500 -0.002820 0.036917
-0.329066 0.675469 -0.117044
0.380492 -0.577375 -0.001820
0.575854 -0.371926 0.007737
0.228771 -0.599911 -0.337059
-0.097908 -0.265332 0.083040
0.178408 0.773409 0.076701
0.596945 0.097622 -0.277829
0.003159 0.083525 0.205427
-0.595687 -0.143251 0.202340
-0.243214 -0.434853 0.281321
-0.194152 0.727274 -0.122407
-0.246099 0.459129 -0.153306
-0.270694 -0.534167 0.063016
0.136335 -0.730388 0.000015
-0.307574 -0.457912 0.139797
-0.137891 0.080636 0.191641
0.324747 -0.032176 0.075650
-0.240080 0.564476 -0.139861
-0.248100 -0.142174 0.280794
-0.337037 -0.435249 0.236897
-0.410863 -0.439995 0.088244
0.736232 -0.080183 0.031930
0.215120 0.546424 0.205262
0.182891 -0.288991 0.054415
0.050399 -0.691376 0.220605
0.080020 -0.206631 0.074689
0.483668 -0.258977 0.122338
0.268867 -0.376712 -0.311054
0.042460 -0.124007 0.219305
0.385716 0.477765 0.137845
-0.255248 0.609000 -0.132571
0.043801 0.703852 0.241141
-0.617903 -0.343332 -0.126293
-0.727891 -0.246052 -0.025125
-0.276080 0.189819 -0.186354
-0.162044 -0.136290 0.258882
-0.513575 0.148909 0.175781
0.644915 -0.054804 0.043588
-0.065105 -0.848677 -0.296229
0.439802 0.127030 -0.259662
-0.480218 -0.479329 0.040267
0.264636 0.329729 0.336781
0.013660 -0.037230 -0.242805
-0.775071 0.133123 0.197416
0.566225 -0.301566 -0.328060
0.129340 0.826927 -0.086809
0.107168 0.836748 0.135422
0.154302 0.595351 0.361514
0.448893 -0.250522 -0.310632
0.182659 -0.701586 -0.346379
-0.395497 0.026185 0.356375
-0.012693 0.124835 -0.218888
-0.657658 -0.302513 -0.206354
-0.123249 0.202376 0.147459
0.075359 0.674006 0.251985
0.399186 0.258561 0.315118
-0.596690 -0.129350 0.292287
-0.052143 -0.563291 -0.306702
0.516011 -0.312960 0.020999
-0.618508 0.134130 0.183341
0.282332 0.204674 0.191718
0.407477 0.561793 0.051849
0.139213 -0.855709 -0.016890
0.026868 0.908853 0.186958
0.155495 0.323121 0.179223
-0.351210 -0.596962 -0.005603
0.863884 -0.017597 0.028658
-0.380630 0.254399 -0.168289
-0.066535 -0.423542 0.059180
0.300591 0.670079 -0.133319
-0.104417 0.075741 0.235985
0.086872 -0.190599 0.076197
0.407354 -0.394682 0.227616
-0.187592 -0.252704 -0.253159
-0.736285 -0.017999 0.173825
-0.701967 -0.269298 -0.042415
0.659806 -0.052078 0.042599
-0.622245 -0.244009 -0.212558
-0.004247 0.409613 -0.181832
0.000884 0.945126 -0.063202
0.127506 0.345425 0.255519
0.254645 0.709021 -0.056105
-0.768244 0.170735 0.091381
0.510512 0.433046 0.120580
0.169579 0.214823 -0.223478
-0.545516 0.310951 0.200202
-0.530731 0.214371 0.186032
0.360587 -0.241916 0.252150
0.055083 -0.303536 -0.281934
-0.091844 -0.129688 0.308115
-0.156145 -0.318470 0.136334
-0.343892 0.417195 -0.150001
0.565621 -0.159249 0.036912
0.387491 -0.174797 0.229021
-0.216330 0.146040 0.148424
-0.523137 0.377900 0.207063
-0.420539 0.563709 -0.123586
0.012145 0.734242 0.220946
-0.534712 0.101617 0.171418
0.630164 -0.030243 -0.297826
0.789169 0.219126 -0.194581
-0.573496 -0.036960 -0.189482
0.367697 -0.128609 -0.287071
0.547324 0.417255 -0.230874
-0.237965 0.279093 0.168059
-0.190053 0.388325 0.178219
0.754860 -0.090015 -0.317081
-0.898274 -0.090830 0.038302
0.290713 0.135667 0.101031
-0.372304 -0.002420 0.350471
-0.262806 0.069505 -0.203538
-0.210680 0.763275 0.153267
0.020196 0.274987 -0.201930
0.377780 -0.163441 0.180903
-0.273719 -0.399622 0.288769
0.320560 0.524615 -0.196035
0.386718 0.385204 0.242254
-0.308216 0.326613 0.180746
0.417992 0.553205 0.027498
0.464222 0.407629 0.121405
-0.350765 -0.589065 -0.176936
0.077309 0.039861 0.236445
0.303568 -0.038035 0.076794
0.237160 0.457081 -0.197436
-0.446428 -0.509380 0.012598
0.254891 0.012390 -0.258107
-0.274949 0.404059 -0.158002
0.150650 -0.647670 0.217312
-0.180423 -0.011003 -0.221708
0.451138 -0.097838 0.055458
-0.336777 -0.311372 0.098604
-0.338370 -0.609425 0.005407
-0.402626 0.403527 -0.146486
0.036381 -0.011547 0.312169
-0.576772 -0.034120 -0.188808
-0.149833 -0.180396 0.099033
0.124069 0.624033 0.349280
0.434790 -0.215045 0.152821
-0.023911 -0.116221 0.145510
0.574605 0.416740 -0.158889
-0.392096 -0.555487 -0.077515
-0.009459 0.953904 -0.046064
0.309974 -0.479927 0.017522
0.162568 0.541683 -0.179430
0.410826 -0.190759 -0.299240
0.074671 -0.461472 -0.304687
-0.303122 -0.641867 -0.000882
-0.055886 -0.417835 0.264515
-0.632613 0.248880 -0.146153
0.540162 -0.044732 -0.291583
-0.337075 0.291749 0.178735
0.119851 -0.461961 0.244772
0.571584 0.118109 0.073209
0.702985 -0.077333 0.035326
-0.493266 -0.209029 0.126398
-0.230715 0.613935 0.211873
-0.112166 -0.120553 -0.242452
-0.249548 0.445366 -0.154821
-0.732774 -0.241333 -0.028885
-0.112294 0.144924 -0.207181
0.159207 -0.769442 -0.007247
-0.252912 0.237997 -0.182058
-0.077000 0.299624 -0.189837
0.526365 -0.088968 -0.296206
0.512117 -0.290255 0.222264
0.623469 0.004138 0.053363
-0.437261 -0.513648 -0.075002
-0.436058 0.309953 0.190135
-0.332323 0.225907 0.169558
0.843026 -0.099737 0.004239
-0.535653 -0.391199 -0.239965
0.423732 -0.197123 -0.301256
-0.362714 0.078314 0.152854
-0.661528 -0.311711 0.057409
0.754286 0.242729 -0.013001
0.249948 -0.444849 0.235238
-0.531269 -0.202524 -0.215304
0.142270 -0.435592 -0.307385
-0.489267 -0.380290 0.103289
-0.589604 0.060445 0.227968
-0.131129 -0.786498 -0.313506
0.469423 0.181545 0.090905
-0.319472 -0.609644 0.057418
0.094073 -0.260203 -0.279717
-0.181349 -0.137172 0.260570
0.608772 -0.123535 0.037740
-0.511043 0.247931 0.188703
-0.387155 -0.557383 -0.133074
-0.273983 -0.313969 -0.253455
0.494690 0.343437 -0.235901
0.501711 -0.279812 0.206281
0.281736 -0.099812 -0.275445
0.040411 0.413969 0.160709
-0.104262 -0.240923 -0.259156
-0.411235 -0.057359 0.346707
0.233947 0.731347 -0.119929
0.346584 0.023121 -0.265003
-0.245429 -0.695609 0.002006
0.514560 0.084437 -0.272104
0.548462 -0.169412 -0.308895
0.075999 0.256398 -0.209464
-0.338480 -0.274420 0.103666
0.563594 0.418926 0.006981
0.143570 -0.658177 0.011011
-0.318457 0.462358 0.199704
0.349184 0.173722 -0.245237
-0.332391 0.007708 0.348194
0.069162 -0.880952 -0.259526
-0.324051 -0.316823 0.096725
0.046006 -0.797302 -0.000674
-0.109309 -0.806594 -0.317153
0.072810 0.001625 0.162923
0.069288 -0.240519 -0.274853
-0.648240 -0.320643 -0.012954
-0.663179 -0.298103 -0.191532
0.007589 -0.915056 -0.320130
-0.161055 -0.139111 0.279886
-0.575827 0.246331 -0.151645
0.221514 -0.501182 0.230336
-0.227285 0.473260 -0.153137
-0.736043 -0.069274 0.166993
0.193849 0.356593 -0.206852
-0.008763 0.182422 -0.211596
-0.272395 -0.344989 -0.257719
0.631691 0.352997 0.061884
0.266772 -0.233767 0.081608
0.609825 0.278981 -0.254911
0.953361 0.065639 -0.175166
0.402636 -0.491714 -0.338468
0.266345 0.453524 -0.200557
-0.230361 -0.702450 -0.145571
0.963389 0.049290 -0.073569
0.672519 0.266161 0.083712
-0.614177 0.087838 -0.169215
0.758503 0.112492 -0.290516
0.583925 0.302827 0.096622
0.286154 0.427567 -0.205802
-0.014586 0.450504 0.170553
-0.255689 -0.423137 -0.269615
-0.144038 0.818970 -0.114776
-0.313687 -0.249442 0.104733
-0.246767 0.048785 -0.207746
0.625130 -0.298178 -0.162969
0.859712 -0.008187 0.030286
0.535921 -0.182228 -0.309459
0.293970 -0.678711 -0.076241
0.169707 0.582431 0.332797
-0.161392 -0.301283 -0.261989
0.282437 0.397409 -0.209470
-0.122664 -0.095214 0.315491
-0.301661 0.147690 -0.189628
-0.471132 0.049694 0.336538
0.234450 -0.158021 0.067130
-0.676529 0.067646 -0.166238
-0.090604 -0.579510 0.040650
0.052464 -0.205371 -0.268658
-0.625414 -0.273810 -0.216228
0.750134 -0.151394 0.021210
-0.371874 0.545916 -0.130365
0.664358 -0.141538 0.030304
0.305794 -0.006840 0.080735
0.528672 -0.404788 0.007654
-0.172899 0.064529 0.301475
0.815529 -0.118009 -0.046095
0.815559 0.196557 -0.234760
0.069186 0.072801 0.112785
0.115621 0.219675 -0.217937
-0.047953 0.592133 0.400001
-0.329542 0.140608 -0.188038
-0.127302 0.001919 0.328812
0.012125 0.759523 0.209171
-0.694413 0.204551 0.199583
-0.675693 0.137522 -0.157034
-0.172804 0.021061 -0.218140
-0.067009 0.330209 0.159333
0.402636 0.231312 -0.242439
-0.217450 0.578775 -0.140015
0.290118 0.081249 0.093857
0.072753 0.038168 0.181770
-0.752408 -0.230532 0.124538
-0.392447 -0.546307 -0.260093
0.822278 0.058216 0.042503
-0.107191 0.117503 -0.211286
0.379043 -0.181542 0.258493
0.207451 0.275808 0.159471
0.079834 0.190325 0.127428
-0.357651 -0.586171 -0.104691
-0.376113 -0.575309 0.025019
-0.664953 -0.270410 0.133827
-0.613165 -0.351912 -0.040145
-0.294370 -0.136144 0.224921
0.066576 0.333493 -0.198369
-0.442505 -0.423732 -0.252740
0.146590 0.398022 0.356564
-0.516516 -0.447868 0.086917
0.282275 -0.237760 0.171715
-0.478325 0.175039 0.176053
0.303170 -0.500318 0.079475
-0.514102 -0.359539 0.108299
-0.579753 -0.380805 -0.084456
-0.368560 -0.357510 -0.250655
-0.292343 -0.128177 0.166788
0.386377 -0.171752 -0.294497
0.627133 0.042002 0.058059
0.050298 -0.763647 -0.342609
0.586823 0.171105 0.078864
-0.586241 0.057540 0.250189
-0.391931 -0.332282 -0.245183
0.798353 0.010984 0.038401
-0.139433 -0.130155 0.219351
-0.715980 -0.251305 -0.144971
0.195294 -0.061591 0.083491
0.189367 0.240516 -0.221862
-0.085115 0.539931 0.318061
-0.019731 0.963179 -0.040503
0.300329 -0.340651 -0.309120
-0.425625 0.189414 0.173179
0.609669 0.137238 0.072293
-0.311313 0.270520 -0.172438
-0.747920 -0.222350 -0.130149
-0.458485 0.266060 0.186341
0.674852 0.321765 -0.120963
0.025020 -0.091717 -0.251072
0.050757 0.298360 0.144416
-0.242884 -0.520554 0.192170
0.884204 0.122185 -0.016266
-0.078744 -0.387560 0.078148
-0.328105 -0.618680 -0.000400
-0.253789 -0.242470 -0.245792
-0.462042 0.113441 0.166394
-0.878469 -0.111749 0.090230
0.152151 0.663589 -0.162293
-0.787991 0.202294 -0.137691
0.470284 0.245574 -0.246684
-0.116400 -0.133808 0.251958
0.572287 0.312625 0.098980
-0.519125 -0.440905 -0.006658
0.218149 0.737663 0.052453
0.113596 0.579510 0.383663
0.228213 0.729803 0.021725
-0.552859 -0.405663 -0.087104
-0.380680 -0.072223 -0.211665
0.039473 0.704322 0.314340
-0.170910 0.003255 -0.220677
-0.359408 -0.465625 -0.265845
0.254219 0.233397 0.138032
-0.166180 0.359888 -0.173740
-0.604535 -0.084805 0.223515
0.322859 0.309444 -0.224822
0.111096 0.330143 0.143161
0.288329 0.108943 0.097698
0.753987 -0.162465 0.019390
-0.866294 -0.116009 -0.055162
0.405459 0.563788 0.049377
0.648180 -0.052876 -0.302467
0.262112 0.502527 0.210170
0.695763 0.063129 -0.291378
0.452943 -0.484961 0.003879
-0.633250 0.140062 0.185467
0.365257 0.461822 0.137584
0.185423 0.770836 -0.004619
0.160399 0.253304 -0.217534
-0.270306 -0.533719 0.063040
-0.284261 0.326991 0.178622
-0.726585 0.135653 0.193352
0.248761 0.011664 -0.257647
-0.422071 -0.523578 -0.161227
-0.241955 -0.699267 0.010889
-0.401006 0.514540 0.214127
-0.002666 -0.880601 -0.353336
-0.023502 -0.475665 -0.297663
-0.800630 0.131602 -0.146482
-0.077253 0.345868 0.162343
0.678000 0.310227 0.056628
0.614677 -0.173635 -0.315466
-0.003313 0.833512 0.220399
0.249498 -0.220080 0.057522
-0.117796 -0.319340 -0.268343
-0.131686 -0.064749 -0.233269
0.053282 0.699242 0.197430
-0.609677 0.275315 0.201291
0.016267 0.723942 0.354358
0.678700 0.046821 -0.291996
-0.112630 0.108124 -0.212038
0.685743 0.309685 -0.080533
-0.228787 -0.536544 0.251811
-0.138725 -0.335959 0.163217
0.153694 -0.098915 0.082309
0.073962 0.273975 -0.206944
-0.077706 -0.082564 0.313091
-0.259374 0.044639 0.346472
0.166448 0.421868 0.357929
-0.008659 -0.480133 -0.299604
0.447976 -0.053546 -0.284387
0.869835 -0.014318 0.028553
0.424371 -0.204232 0.129469
0.338545 0.362879 0.334476
0.569923 -0.237796 0.026090
0.003427 -0.443903 0.050127
0.282364 -0.442232 0.232643
-0.373118 -0.070607 -0.212136
-0.669308 -0.177439 0.146570
0.453817 -0.129351 -0.294985
-0.504605 0.166109 0.177251
-0.259699 0.058535 0.324017
-0.382792 -0.000303 0.351704
-0.178600 -0.536974 0.054285
-0.433541 -0.502573 -0.264024
-0.182740 0.098757 -0.206919
0.601918 -0.167128 0.032572
0.072987 -0.003096 0.162482
-0.635053 0.351307 -0.132328
0.459482 -0.371807 -0.327702
-0.007283 0.944036 0.115718
0.660234 0.158913 -0.275432
-0.901113 -0.087076 0.015276
0.082385 -0.732076 0.212296
-0.134766 -0.080828 0.318499
0.256886 -0.090785 0.074024
-0.354639 0.372451 0.191047
0.103976 0.836504 0.201605
0.832070 0.181568 -0.241986
-0.550467 -0.248503 0.126347
0.191982 -0.507143 -0.321400
-0.788919 -0.193083 0.051795
-0.142483 -0.788527 -0.054180
-0.333064 -0.149966 -0.226311
0.435097 0.548458 -0.202289
-0.166008 -0.311788 0.187478
-0.413200 -0.140670 0.228700
0.533989 0.369066 0.109952
0.084915 0.385777 0.239394
-0.076354 -0.496713 -0.295662
-0.240180 0.129609 0.148406
0.359199 0.345544 -0.223325
0.256553 0.315367 -0.218018
-0.619973 -0.344032 -0.072200
-0.391115 0.125816 -0.184415
0.380046 0.264656 -0.235960
0.596652 0.030353 0.059278
0.201498 0.476147 -0.191667
0.142005 0.330266 0.290313
-0.525361 -0.427682 -0.159838
0.278093 0.061104 0.092273
-0.570968 -0.143984 0.213879
0.317289 0.171424 -0.242647
0.001713 -0.919849 -0.108739
0.739312 -0.073624 0.032522
-0.448246 0.294217 -0.156864
0.220083 0.742960 -0.093809
-0.174316 -0.121563 -0.236946
-0.125485 -0.483598 0.264163
-0.216892 -0.331750 0.292626
-0.506013 0.011274 -0.189200
0.034105 0.717224 -0.144457
-0.356925 -0.542904 -0.276334
-0.255867 0.127435 -0.196474
0.455808 0.527760 -0.172252
0.347929 0.417281 0.323915
0.165876 -0.515323 0.233508
-0.329622 0.621974 0.204393
-0.884225 -0.099843 -0.044987
-0.229567 0.473394 0.193103
-0.149880 -0.132101 0.231072
0.215457 0.744205 -0.030868
-0.006122 0.195119 0.135865
-0.526825 -0.093603 -0.201241
0.165279 0.314664 0.166167
0.773859 0.220702 0.066205
0.066829 0.403640 0.217541
-0.154723 -0.517233 0.207420
-0.162808 0.778536 -0.118443
0.494593 -0.291338 -0.320200
-0.721603 0.042453 0.180521
0.435696 -0.216411 0.163636
-0.681734 0.172181 -0.151882
0.471588 0.119256 0.082436
-0.478431 -0.426351 0.096188
0.270286 -0.188332 -0.286163
-0.117629 -0.100919 -0.239349
0.658335 0.342547 -0.233065
-0.284654 -0.476473 0.083416
-0.252465 -0.610564 0.051215
0.281404 -0.626028 0.000711
-0.669027 -0.088555 -0.187665
0.491109 -0.268061 0.167078
0.303964 -0.567408 -0.339567
0.155530 -0.645440 0.217165
-0.643335 -0.321631 -0.086553
0.602802 -0.018776 0.052195
0.370613 0.129285 -0.253083
0.610145 -0.161048 -0.313383
-0.122043 -0.522316 0.051099
-0.265775 0.072235 0.221682
0.298806 0.044498 0.088188
-0.163827 -0.761804 -0.196303
-0.130432 -0.489834 0.263784
0.656314 -0.273027 0.013570
0.207059 -0.505441 -0.322542
-0.399694 0.212456 -0.172129
-0.053873 0.507865 0.380732
0.722403 0.017599 -0.299843
-0.390191 0.034595 -0.196614
0.355276 0.412157 0.288812
-0.413515 -0.538937 -0.008443
0.314650 0.033918 -0.260671
-0.165106 -0.572357 -0.297654
-0.318906 0.146476 -0.188224
-0.112450 -0.031862 -0.230647
0.331281 -0.546010 -0.339204
-0.552823 -0.136167 0.160860
-0.273584 -0.662365 -0.144074
0.893365 0.045250 -0.311686
0.250013 0.473059 -0.196480
0.531745 -0.177060 -0.308394
-0.611233 0.021661 0.201358
0.154187 0.597078 0.328104
-0.085610 -0.248278 0.084189
-0.122935 0.564239 -0.150524
0.266904 0.221528 0.139770
0.223778 0.536408 0.245936
-0.030843 -0.536251 0.040972
-0.427638 -0.342519 -0.243303
0.428917 0.021187 0.073284
-0.168815 -0.425041 -0.277752
-0.090581 -0.541870 0.045647
0.128575 0.792051 0.202923
0.741643 0.254280 -0.008979
-0.223704 -0.522860 -0.285762
-0.043017 -0.430407 0.056134
-0.241429 0.075305 0.205141
-0.193226 -0.741794 -0.045716
0.060683 0.760947 0.204954
-0.008510 -0.458557 0.049264
0.205459 0.617226 -0.173289
0.015790 0.150433 0.127942
0.163012 0.081486 -0.240591
-0.164531 0.783092 0.228334
-0.290887 -0.032080 -0.214482
0.320541 0.114014 -0.250567
0.333412 -0.117426 -0.282474
-0.592272 0.289261 0.201564
-0.881152 -0.110013 0.105839
-0.357763 0.339997 -0.158995
-0.295374 0.016683 -0.207598
-0.177344 0.583730 0.203018
-0.235170 0.082955 0.150397
0.671329 -0.216642 -0.297912
0.534823 -0.355901 -0.332426
0.278661 0.483257 0.290490
-0.010190 0.083934 -0.224548
-0.053887 -0.695517 0.179214
-0.032279 0.781095 -0.129949
-0.661764 -0.137338 0.151212
-0.019534 0.127983 0.128166
-0.148129 -0.092141 0.318210
0.026326 0.435917 0.327906
0.332837 -0.538574 0.007658
0.184974 0.770102 0.019107
0.104697 -0.517841 -0.314899
0.143644 -0.158800 -0.270748
0.404933 0.562367 0.088767
-0.656406 0.293975 -0.138005
-0.054582 -0.534848 -0.302703
-0.116767 0.410737 0.174544
-0.376126 -0.246652 0.110770
0.281464 0.201585 0.272037
0.695239 -0.215133 0.017727
0.334189 0.632499 -0.002077
0.247319 -0.404159 0.240880
-0.454125 0.097097 0.163504
0.709715 0.050608 -0.294307
0.256427 0.500849 0.353677
0.683663 0.318036 -0.212875
-0.210957 -0.091716 -0.229656
0.055038 0.476109 -0.178380
-0.078506 -0.405527 0.062659
0.450420 -0.231043 0.183262
-0.313957 -0.387417 -0.259583
-0.252794 -0.582589 -0.291055
-0.343471 -0.570383 0.064810
-0.215142 0.770700 -0.114734
-0.634274 -0.102523 -0.192674
-0.273055 0.518655 0.203061
-0.195733 -0.728209 -0.277786
-0.159427 0.469864 -0.159746
-0.013221 0.206866 -0.207945
-0.208145 -0.719529 -0.219012
0.412930 -0.130421 0.054598
0.342074 0.161521 -0.246212
-0.605480 -0.135497 0.185266
0.406662 -0.392884 -0.325707
0.550420 0.032894 0.063812
0.121559 0.833396 -0.071130
0.047495 0.856954 -0.127114
0.692574 0.078556 -0.289040
-0.171953 -0.388345 0.281031
0.191521 0.504895 -0.186943
0.009463 0.628724 0.399650
-0.685652 -0.276492 -0.206622
0.510420 0.409316 0.117436
-0.174107 -0.302809 0.157505
0.097562 0.650162 0.318295
-0.190692 -0.115685 -0.234679
-0.258886 0.319100 -0.170744
-0.184573 -0.511777 0.265783
-0.058401 -0.811335 -0.339078
-0.317658 0.231485 0.168968
0.683583 -0.169377 0.024862
0.001354 0.937974 0.075267
0.106997 0.841990 0.030620
-0.072638 0.561364 0.398154
0.719769 0.282847 -0.178980
0.095721 -0.470368 -0.307779
0.592347 0.303135 -0.250116
-0.102800 0.588089 0.404441
-0.276214 -0.460233 -0.272679
-0.208763 -0.729114 -0.009532
-0.214305 0.424406 -0.160803
0.030696 0.620198 -0.157034
-0.123395 -0.799435 -0.194935
0.169795 0.586954 0.237854
0.819217 0.055581 0.042430
0.131315 -0.595708 -0.327657
0.073011 0.016015 -0.241119
-0.691316 0.090717 0.184183
-0.321165 -0.227706 -0.237716
0.044236 0.899510 0.046884
-0.161913 0.441403 -0.163301
0.844565 0.009751 -0.311972
0.113397 0.832279 0.108248
-0.028172 -0.545608 0.041943
0.227967 -0.736123 -0.138538
0.796249 0.009738 0.038426
-0.351046 -0.595099 -0.047143
0.866346 0.149717 -0.241865
0.064968 -0.410271 -0.297007
0.818357 -0.038738 -0.316034
-0.373444 -0.175037 0.120039
0.381209 -0.167761 0.204279
0.132427 0.209978 -0.220750
0.073026 0.241452 0.134836
-0.367814 -0.233860 0.111715
-0.248929 0.202452 0.158875
0.097555 0.441088 -0.186890
0.089894 0.752428 0.201171
0.391160 0.115539 -0.256774
0.135849 0.145110 -0.229676
-0.169011 0.789484 0.229589
0.441316 0.540847 -0.164488
-0.910015 -0.071824 -0.128668
-0.386805 0.013926 0.353958
0.269691 0.649514 0.171185
0.069991 0.883368 -0.113661
-0.687981 -0.101543 -0.187670
-0.889849 -0.090298 -0.134052
-0.068770 0.261507 -0.195647
-0.682422 0.019530 0.173921
0.365032 0.611628 -0.162584
0.329608 -0.375913 -0.316460
0.312611 -0.424763 -0.321406
-0.168913 -0.755272 -0.233560
0.495062 0.492572 -0.198701
-0.955214 0.021816 -0.144312
-0.272309 -0.658009 -0.258329
-0.024154 0.481677 0.351414
-0.764590 -0.215158 0.040886
-0.363732 -0.443034 0.083563
-0.265721 0.211853 -0.184368
-0.215924 -0.540540 0.087803
-0.088808 -0.506614 0.050168
-0.167337 -0.765539 -0.052062
-0.182519 0.018364 0.336007
-0.456627 -0.497751 -0.031805
0.933238 0.084494 -0.178428
0.131853 0.344724 0.186689
-0.754545 0.056260 -0.160671
-0.059717 0.033684 0.326898
0.112432 -0.212293 0.070996
0.597749 -0.255241 -0.324768
-0.463727 -0.138110 0.133137
-0.160796 -0.458113 -0.282872
-0.528739 0.074908 -0.178686
0.346204 0.627099 -0.120914
-0.542801 -0.312783 0.117114
-0.125838 0.594351 0.398644
0.202854 0.272870 0.308109
0.426262 0.351703 0.175491
-0.246171 0.368371 -0.165354
0.367418 -0.078280 0.065654
0.661218 0.065292 -0.287956
0.096376 0.648129 -0.159285
0.197502 -0.656957 0.004217
-0.492265 -0.469773 0.074007
0.763175 0.240073 -0.128529
0.466264 -0.011438 -0.280454
0.025571 -0.492464 0.065052
0.243178 0.611881 0.168593
-0.285057 0.544118 -0.138483
-0.587145 0.109978 -0.168728
-0.726627 0.183448 -0.146312
-0.523613 -0.061581 -0.197279
-0.105374 -0.421822 -0.283082
-0.258998 0.690920 0.224665
0.631984 0.080421 -0.283294
-0.024449 0.295713 -0.195126
0.607852 0.083143 0.065273
0.421929 -0.315788 0.236771
-0.165211 -0.724562 0.028155
-0.591012 -0.152187 0.347087
-0.436785 0.250962 0.182367
-0.841577 0.114534 -0.010598
0.061087 0.082746 0.225559
0.261853 0.261246 0.327938
0.235761 0.717668 0.127332
-0.312290 -0.189757 0.112534
0.284361 0.253684 -0.228734
0.436892 -0.432672 -0.333735
0.077297 -0.117012 0.176484
-0.540359 -0.140601 0.196589
-0.639762 -0.166175 -0.200630
-0.178634 -0.140922 0.288846
0.050984 -0.884094 -0.331390
0.345669 -0.336573 0.240932
0.908562 0.110291 -0.237641
-0.337686 0.077022 0.168583
0.542744 -0.291591 -0.324604
-0.415848 -0.450520 0.087299
-0.164293 -0.660214 0.036618
0.195454 0.764033 -0.056512
-0.038252 0.285139 -0.195278
0.112284 0.363362 0.177253
0.245993 0.709205 0.105836
0.096109 0.850032 0.073360
-0.458225 -0.493448 -0.089920
0.370463 0.444017 0.134747
0.036077 -0.173818 0.083035
-0.838799 -0.057405 0.177895
0.904736 0.111932 -0.198178
-0.262228 -0.633821 -0.297003
0.044447 0.702142 0.264024
-0.095743 -0.196975 -0.254092
0.194459 -0.790874 -0.059608
0.194193 0.640409 -0.169187
0.312493 -0.618151 -0.250679
0.350763 0.112142 -0.253559
0.043891 0.317844 0.147626
-0.078878 0.282991 -0.191876
-0.054924 -0.088476 0.310238
0.054004 -0.778743 -0.344950
-0.487722 0.490068 -0.127269
-0.477274 0.424428 -0.136935
-0.830817 0.086681 -0.149708
-0.095752 -0.461443 0.264407
-0.401820 -0.127674 0.135885
-0.519500 -0.444265 0.069800
0.284809 0.502637 -0.195709
-0.165109 0.233503 -0.190623
-0.009885 -0.765326 -0.337370
0.141773 0.726656 -0.152975
-0.743884 -0.232081 -0.006806
-0.338636 0.354288 -0.158833
0.084082 -0.488608 -0.309146
-0.609789 0.316894 0.204978
-0.052285 0.081903 0.203590
-0.535961 -0.146685 0.138553
0.093144 0.745058 0.199897
0.225796 -0.473126 0.233674
0.589419 0.395696 -0.008763
0.343778 -0.067184 -0.276742
-0.387552 -0.563430 -0.000813
-0.625865 0.162592 0.187789
0.038001 -0.870150 -0.355638
-0.132008 0.580961 0.370360
0.457874 0.006932 -0.277253
0.315668 0.617118 -0.183305
0.400253 0.150742 0.093092
0.050944 0.886387 0.188986
0.782055 0.037261 -0.302645
-0.510248 -0.169772 -0.212862
-0.890555 -0.095433 -0.014651
0.084479 -0.364352 0.053337
0.526537 0.461489 -0.160737
0.082112 0.313934 -0.202377
-0.525102 0.256352 -0.154918
-0.358594 -0.518572 -0.272951
-0.583884 -0.047111 -0.189888
-0.704404 -0.197144 -0.198877
-0.210092 -0.564914 0.053432
-0.064205 -0.684620 0.152180
-0.948650 -0.037036 -0.105865
0.356828 0.145457 0.096331
-0.064341 0.916005 -0.109121
-0.863890 -0.022445 -0.161200
-0.887131 -0.073448 -0.165865
-0.070736 0.012143 0.325036
-0.611258 -0.345847 -0.201734
-0.789544 -0.182256 -0.159466
-0.368375 -0.127332 0.333524
0.183703 0.592152 -0.174645
-0.088627 0.515069 0.185848
-0.018027 -0.766942 -0.336846
-0.543511 -0.046800 0.360114
-0.096556 -0.624622 -0.310817
-0.582384 -0.042473 -0.189408
0.192830 -0.702642 -0.347442
-0.505404 -0.449152 -0.099481
0.415225 0.503115 0.138534
-0.011491 0.511128 0.385933
0.069590 0.432446 0.368124
0.577610 0.370623 0.106200
0.581540 0.401662 0.019175
0.074324 0.525593 0.380066
-0.039512 0.156924 -0.212192
0.097471 0.458304 0.369028
0.281611 0.485690 0.183812
0.033462 -0.456051 -0.300228
-0.257060 0.535689 0.203872
0.380822 -0.388917 0.230789
-0.370723 0.646388 -0.094186
0.198388 0.329412 0.342751
0.711773 0.165076 0.066724
-0.453472 -0.152405 0.337917
0.149226 -0.457170 -0.310882
-0.253243 -0.056578 -0.221152
0.564706 -0.063490 0.049714
0.258688 -0.140209 -0.278719
-0.765437 -0.211803 -0.012039
0.371203 0.286809 -0.232215
0.008107 0.933372 0.040793
0.524606 0.003378 -0.283781
-0.168592 -0.751977 0.024821
0.613346 0.188031 0.078705
-0.164550 -0.758732 -0.245795
-0.034439 -0.535700 -0.304644
0.076028 -0.044462 0.176267
0.658175 0.340450 -0.186764
-0.439370 -0.502835 -0.257543
0.250377 -0.459821 0.233210
0.029593 0.708792 0.408457
0.334352 0.570447 0.154816
0.493895 0.377610 -0.231290
-0.170141 -0.315545 -0.263089
-0.093786 0.012728 0.327206
-0.599255 -0.140875 0.183969
0.011572 0.818437 0.217046
-0.371774 -0.111206 -0.217650
-0.567456 0.071866 -0.175577
0.509953 -0.284893 0.153151
-0.279461 -0.137790 0.240737
0.486514 0.487242 0.074956
-0.583348 -0.325188 -0.226870
0.183125 -0.567349 -0.328592
-0.002202 -0.576792 -0.313027
-0.166239 0.524584 -0.151860
-0.421351 0.519133 0.216583
0.409079 -0.126172 -0.290503
-0.314550 -0.622640 -0.178417
0.336996 -0.255785 0.252448
-0.211119 0.342364 0.174026
-0.359487 -0.147750 0.294154
0.346189 0.420207 0.296926
0.011941 0.456885 0.171134
-0.719236 -0.256634 0.027267
0.618229 -0.319417 0.010865
-0.064389 -0.718994 0.019745
0.832936 0.170478 -0.029903
0.131123 -0.030594 -0.252583
-0.343366 -0.606312 0.036932
0.061908 -0.815011 -0.350485
0.232584 -0.136691 0.070133
0.115958 0.083261 0.109930
0.643746 0.058038 -0.287334
-0.508806 0.109134 0.170066
0.221428 -0.280637 0.070885
-0.222896 -0.705731 -0.220925
-0.481291 -0.302198 -0.233078
0.515818 0.062138 -0.275179
0.115709 0.690326 0.190580
0.382553 -0.593042 -0.029832
0.397942 -0.424901 -0.329168
0.236537 -0.544095 -0.330351
-0.460719 0.065540 0.222506
0.811047 0.036342 0.040617
0.371378 -0.289813 0.244809
-0.158516 0.802463 0.229213
0.876162 0.132415 -0.073144
-0.070067 0.528136 0.272991
0.442069 0.185653 -0.252082
0.281206 0.675802 0.120017
-0.224970 -0.136391 0.243989
-0.138441 0.572622 0.198012
-0.851882 -0.132718 0.013276
-0.422081 -0.521230 -0.209464
-0.001172 -0.907753 -0.302872
0.384126 -0.047579 -0.277800
0.693234 0.006997 0.047411
0.625958 0.367104 -0.119179
-0.246261 -0.463968 0.277731
-0.206977 0.581744 0.205444
0.270032 0.493192 0.250945
0.164764 0.585309 0.368134
0.071992 -0.559334 -0.317442
-0.192938 0.085603 0.141405
0.206713 0.445047 0.357354
0.100425 0.374089 0.183256
-0.194700 -0.105828 0.320618
0.435268 -0.218817 0.221438
-0.269257 0.407336 -0.158084
0.282700 0.176799 0.107221
-0.835472 -0.016590 -0.163002
0.196281 -0.137868 0.073271
0.415119 -0.040167 0.066387
0.063476 -0.140650 -0.261061
0.068469 -0.000281 0.103144
0.359721 0.414137 0.162856
-0.128024 -0.161371 -0.246434
-0.609382 -0.025758 0.197863
-0.284751 -0.483678 0.233835
-0.216815 -0.515426 -0.285400
0.031479 0.650626 0.400561
0.325162 -0.175693 0.105271
-0.623965 -0.349421 0.115382
-0.693913 -0.168109 0.150042
-0.389702 -0.552023 -0.194816
-0.306728 -0.624545 -0.288966
-0.001460 0.115089 -0.221202
-0.379323 -0.149413 0.301458
0.179504 0.209384 0.120914
-0.218935 0.531979 0.199919
0.417899 -0.280251 -0.311768
0.364058 0.284280 -0.231903
0.065224 0.708694 0.197602
0.016167 -0.923947 -0.301136
0.114379 0.834993 0.033477
-0.057899 -0.551580 0.041391
-0.274251 0.020322 -0.209032
0.385319 0.583100 0.037008
0.120141 -0.705531 0.105371
0.429364 0.223100 0.100060
-0.539893 -0.410322 -0.239421
-0.165099 -0.143481 0.312931
-0.460956 0.523513 0.012299
0.120633 0.095541 0.111137
0.121478 -0.183186 0.074041
0.028682 0.444348 -0.180207
0.032063 0.311674 -0.198135
-0.516782 -0.091062 0.351809
0.148369 0.796170 0.182843
-0.267887 0.315948 -0.170346
0.007061 0.762187 -0.136031
0.551439 0.174126 -0.263538
-0.276255 -0.619136 0.052235
0.800071 0.084269 -0.298037
0.734609 -0.214263 0.014269
-0.011802 -0.902021 -0.217434
-0.343812 -0.444787 0.081523
-0.102285 -0.136372 0.274336
-0.816610 -0.167584 0.056483
0.054459 0.417302 0.172812
-0.729571 0.144504 0.194798
-0.045935 0.507787 0.230283
-0.068516 -0.847852 -0.247908
0.037042 0.045579 -0.233928
0.058841 0.215837 -0.213294
0.292384 0.193459 0.230410
0.002500 0.199754 0.135699
-0.383698 -0.185843 -0.226481
0.147238 -0.001198 -0.250142
0.846774 -0.022636 -0.311061
0.025478 -0.286987 -0.277049
0.306061 0.423510 -0.208147
0.412642 0.419321 -0.218376
0.194941 0.190122 0.116955
0.274863 -0.442184 -0.320294
0.641339 -0.196172 -0.320879
0.099096 0.647217 0.349623
-0.901763 -0.087565 0.037818
-0.418273 -0.526779 -0.167995
-0.515480 0.066470 0.202052
0.396196 -0.404392 0.019729
-0.153881 0.311490 0.164731
-0.359208 -0.341865 -0.249426
-0.194171 0.278530 -0.182005
-0.127071 0.646515 0.206795
0.069634 0.084072 0.217926
-0.546478 -0.159834 -0.208254
-0.030835 -0.498470 -0.300027
0.767007 0.070825 -0.296822
0.494842 0.142625 -0.262586
0.275950 0.407649 -0.207521
0.056929 -0.716925 0.216619
0.093381 -0.700471 0.215496
0.294195 0.257658 -0.229098
-0.641054 -0.318193 -0.201131
0.312427 0.373278 0.338228
0.396682 0.378475 0.190130
0.877533 0.128042 -0.009238
-0.210236 -0.720910 -0.150480
-0.350531 -0.322340 0.098395
0.117605 0.247240 -0.214456
0.056666 0.690768 0.264462
-0.117496 -0.127216 0.203169
0.456247 0.124743 0.084557
0.847132 0.094659 -0.300928
0.198290 -0.359074 0.251318
0.459977 0.485166 -0.213927
0.751984 0.253783 -0.196812
-0.024258 0.417792 -0.178929
0.005759 -0.110636 0.111782
0.185332 -0.078027 0.082212
0.166418 -0.273297 0.057994
-0.409129 -0.320157 -0.242012
0.493997 -0.077888 0.054219
0.469723 -0.294606 -0.318377
-0.477764 -0.147911 0.265943
-0.374398 -0.139323 0.228425
-0.598706 -0.363431 -0.079618
-0.023345 0.739534 -0.136280
-0.747995 0.009545 0.178546
-0.594168 0.219613 -0.153529
0.116693 -0.594080 0.227511
0.065063 -0.788099 -0.001181
0.076199 0.060483 0.318122
0.048874 0.888623 0.182524
0.350802 -0.201377 0.258422
-0.230012 0.047588 -0.209425
-0.437097 -0.130134 0.145222
-0.556385 -0.351080 0.113260
0.814362 0.199453 -0.271537
0.675453 -0.110570 -0.312605
-0.156805 -0.109696 0.316666
0.351028 0.173057 0.308132
-0.382263 -0.570450 0.042629
0.120055 0.256507 -0.213447
-0.456046 -0.503533 0.076278
-0.578664 0.370546 -0.134890
-0.291081 -0.641679 -0.235411
0.076818 0.600498 -0.163836
-0.165643 0.441745 0.183098
0.086731 0.410844 0.363700
-0.485543 0.047186 -0.186289
-0.293869 -0.126393 0.153282
0.665009 0.336832 -0.243069
0.538652 -0.251619 0.027092
0.355324 0.416484 0.198701
-0.538326 -0.055609 0.358473
-0.455727 -0.459969 0.089663
0.101580 0.374219 0.158459
0.432162 0.541615 -0.004962
0.226309 0.017497 -0.254835
0.194145 0.285080 0.337248
-0.304647 0.667142 -0.120366
-0.096499 -0.297214 -0.267337
0.177370 -0.329807 0.076135
0.233495 -0.449273 -0.317481
-0.574963 -0.297026 0.122125
0.624071 0.364498 -0.029292
0.070559 -0.046916 0.304370
0.295786 -0.045486 0.076510
-0.000727 -0.368166 -0.285452
-0.334458 0.228900 0.170150
0.083114 -0.074854 0.243644
-0.036083 0.365603 -0.184788
0.146079 -0.263769 -0.284910
-0.491630 -0.462890 -0.080074
0.280897 -0.250646 0.220874
-0.522759 -0.154411 0.136329
0.158968 0.043046 0.100685
-0.131348 -0.667540 0.032656
0.034082 0.567081 0.389228
-0.735384 -0.242620 0.047649
-0.150947 -0.137896 -0.241236
-0.147459 -0.503829 0.055861
-0.135375 0.156111 -0.203600
0.115516 -0.561040 -0.321618
-0.659675 0.120721 -0.160719
0.267013 0.471330 0.355372
0.238853 -0.006956 -0.259221
0.458934 0.196960 -0.252110
-0.641441 0.150715 0.187625
0.243781 0.242135 -0.226585
0.329272 0.430615 0.344314
-0.269660 -0.149440 -0.231996
0.412793 0.282020 0.316999
0.021459 0.721596 0.303258
-0.054796 -0.688094 -0.323037
0.502993 -0.273273 0.046895
0.477416 -0.385558 -0.331155
0.090935 0.060765 -0.236802
0.174611 0.740150 0.191852
-0.170505 0.543608 -0.148947
0.426976 0.553801 -0.156885
-0.458776 0.480100 0.210000
-0.950670 -0.041629 0.027546
0.431590 0.345080 0.209981
0.134737 -0.009409 -0.250098
-0.067894 -0.854412 -0.124575
0.128458 0.360736 -0.200367
-0.135030 0.447736 0.181116
-0.118101 -0.208393 0.092435
-0.578079 -0.145668 0.350120
0.075536 -0.038828 0.173474
-0.139181 0.656836 0.209264
0.398935 -0.088262 -0.284547
-0.600474 -0.119899 0.252681
0.209379 0.121704 -0.239458
-0.022843 0.499351 0.385399
0.416465 0.066135 0.080383
0.135584 0.819486 -0.052990
0.443766 0.524705 0.121401
-0.582601 -0.070073 -0.193054
-0.106634 -0.824077 -0.007918
0.325997 -0.068567 -0.275312
-0.067758 -0.401007 0.144957
0.430546 -0.300117 -0.315554
-0.168965 -0.318224 -0.263551
-0.200426 0.565059 0.202633
-0.467938 -0.133659 0.163499
0.719048 0.167854 0.066433
-0.425819 0.414274 0.203062
-0.020509 -0.728941 0.014442
-0.960149 -0.031873 0.007971
0.127175 0.436180 -0.190230
0.053211 0.423262 -0.185233
0.214235 0.377800 -0.205885
0.120714 0.048938 0.104940
-0.628959 -0.181904 -0.203700
0.691456 0.297186 0.067760
-0.339099 0.073454 0.194490
0.243873 -0.556709 0.044281
-0.582458 -0.038226 -0.188837
0.656483 0.250909 0.083142
0.402222 0.576557 -0.151897
-0.213598 -0.025512 -0.220624
-0.186463 -0.424239 0.277581
-0.473815 -0.274402 0.115951
-0.574091 -0.148720 0.141743
0.889670 0.038209 -0.312286
0.610509 -0.051378 0.047166
0.300580 0.667277 -0.075357
-0.259037 0.551919 -0.139808
0.470974 -0.359012 -0.327045
-0.448098 0.062333 0.249248
0.716534 0.047256 0.050644
0.135815 0.823254 -0.135108
0.411463 -0.304081 -0.314349
-0.897969 0.063435 -0.146701
-0.474555 -0.470732 -0.245466
0.257614 -0.557288 0.219608
-0.338535 -0.038675 0.342591
0.185154 0.591856 0.171199
-0.249440 -0.114050 -0.229130
0.027374 0.220160 0.136151
-0.495541 -0.120039 0.346033
0.156034 -0.595250 -0.329839
-0.306933 0.169302 -0.186279
-0.373217 0.125226 0.159898
0.196873 0.389797 0.350908
-0.152576 -0.776444 -0.109989
-0.311735 0.331460 -0.164306
-0.439766 -0.313651 -0.238368
-0.068264 0.509268 -0.162786
-0.127693 0.582666 0.252549
0.584534 0.050681 -0.282937
-0.149354 0.379945 -0.172603
0.063623 0.834157 0.214410
0.510352 -0.186165 0.038353
-0.103527 -0.219582 0.089627
0.110550 -0.514513 0.238636
0.282609 0.478957 0.303522
0.846616 0.167738 -0.235480
0.133802 0.620621 0.233168
0.573517 0.011803 -0.287101
0.082634 0.003327 0.279757
0.583278 0.387255 -0.238121
0.256606 0.658477 0.173563
0.002621 0.696770 0.409308
0.363207 0.066217 -0.260788
-0.646115 0.346232 -0.131998
-0.148019 0.379102 0.173179
0.135421 0.065285 -0.240239
0.116233 0.630466 0.366737
-0.732322 -0.232633 0.144958
-0.599273 -0.052652 0.302787
-0.125296 0.068569 0.283573
-0.054172 -0.262010 -0.266503
0.119784 0.827864 0.076922
0.097291 0.815873 0.208926
0.383926 -0.366010 -0.320075
-0.311697 0.076427 -0.198182
-0.297750 -0.438386 -0.267823
-0.286120 0.359626 0.183125
-0.243970 -0.340828 0.293878
-0.098790 -0.356203 0.071051
0.648839 -0.041531 0.044995
0.441815 -0.223503 0.192629
0.557705 0.179616 -0.263378
-0.612714 0.360165 -0.133179
-0.083196 -0.644896 -0.314722
0.543491 -0.191398 0.034651
-0.848131 -0.039557 -0.164903
-0.069911 -0.454206 -0.290601
0.370123 0.600190 -0.024276
0.072224 0.746559 0.201995
-0.154356 -0.739259 0.025218
-0.803108 -0.106920 -0.177936
-0.121400 -0.427758 -0.282416
-0.143843 -0.464604 -0.285273
0.265687 -0.704816 -0.096445
0.152365 0.794399 0.142792
0.362115 0.198110 0.310453
0.550458 0.027629 0.063109
0.246010 0.708603 0.117921
-0.393826 0.116585 0.160620
0.399494 0.175241 0.304024
-0.152833 0.562395 -0.148055
0.011465 -0.132093 0.271111
-0.080666 0.944575 -0.018535
-0.063702 -0.859653 -0.096805
0.697440 0.305245 -0.213035
0.766703 -0.101099 -0.319629
-0.775231 0.155366 -0.145630
-0.171054 0.600076 -0.141397
-0.711168 -0.264469 0.034264
-0.277466 -0.554686 -0.285110
0.196560 0.735439 -0.156781
0.111501 -0.389518 -0.298473
-0.190384 -0.741477 -0.106678
-0.083942 -0.512175 0.048988
0.213156 0.475791 0.360852
-0.244239 -0.693986 -0.054240
-0.084484 -0.484737 0.052682
0.516772 0.467179 -0.090999
0.041571 -0.110931 0.122852
0.234378 -0.203798 -0.284958
-0.691617 0.218261 -0.144865
-0.169796 -0.765011 -0.015837
-0.024061 -0.158727 0.090497
-0.187463 0.077699 0.200934
-0.064835 -0.853736 -0.197101
-0.110690 -0.369991 0.277909
0.224567 -0.358615 -0.304630
-0.061916 -0.852502 -0.278462
0.303903 0.184239 0.199864
-0.285485 -0.036168 0.338109
0.490130 -0.262874 0.078892
-0.238239 0.067356 0.264434
-0.207008 -0.128542 0.190684
-0.307568 -0.638422 0.013234
0.098079 -0.752669 0.208137
0.589052 0.051775 0.062813
0.082877 0.667133 0.249685
-0.793462 -0.001731 -0.164841
-0.117903 -0.127543 0.205478
-0.415979 0.466287 -0.136938
-0.383541 -0.053759 0.344672
-0.280762 0.597391 0.214218
0.758620 -0.025009 -0.308789
0.171796 -0.412760 0.246592
0.097649 -0.038060 -0.250537
-0.336228 -0.603348 -0.160922
0.014552 0.445252 -0.178804
0.064589 0.804181 0.210341
0.083959 0.856656 0.169547
0.607870 0.387623 -0.195756
-0.215137 0.126235 0.145685
-0.392717 -0.558232 -0.009049
0.344261 -0.351672 -0.314571
-0.264881 -0.527889 -0.282693
0.496437 0.276068 0.308617
-0.356870 -0.012241 -0.205859
0.720250 0.182983 0.068333
-0.332000 0.385710 -0.155262
0.049202 0.895654 0.031272
0.153781 0.224762 0.125291
0.643183 0.355935 -0.218850
-0.256423 0.148176 -0.193669
0.302250 -0.393261 -0.316282
-0.216349 -0.520615 0.267493
-0.012442 0.263848 -0.200448
-0.450854 -0.136383 0.187788
0.385936 0.591157 -0.140934
0.268112 0.492750 0.296836
0.005126 0.811970 0.216772
0.539580 0.163629 0.082159
0.773826 0.232806 -0.182722
-0.186777 -0.690142 -0.311331
0.048132 -0.789740 0.167658
-0.292434 -0.117855 0.327891
-0.396522 -0.129352 0.149547
0.162740 -0.012428 -0.253040
-0.109658 0.204426 0.146498
0.044648 0.425727 0.187038
-0.607009 -0.102509 0.184859
-0.693560 -0.200066 0.145766
0.953278 0.066091 -0.182890
-0.539671 -0.419719 -0.049926
0.439975 -0.465616 -0.310173
0.075588 0.741842 -0.144952
0.184622 -0.575722 0.223784
-0.710401 0.168315 0.196221
-0.096833 -0.092043 0.313567
0.318029 0.098067 0.093558
-0.497538 -0.307230 0.113743
-0.260153 0.064148 0.282599
0.294663 0.193298 0.190057
0.229488 -0.375201 -0.307280
0.139802 -0.858867 -0.017363
-0.156993 -0.321067 0.206115
-0.389882 0.593365 -0.122429
-0.274800 -0.061883 -0.219900
-0.033256 0.552225 0.393366
-0.236412 -0.120965 0.127615
0.092815 0.575766 -0.168573
-0.855249 -0.127529 -0.029202
0.092474 0.659838 0.216263
0.596029 0.389121 0.000183
0.156554 0.800927 -0.072053
-0.114959 -0.452405 0.059742
0.774766 0.225186 -0.043605
-0.568760 -0.164442 0.139172
0.125467 0.817023 0.191588
0.188683 -0.254313 -0.287521
-0.037183 -0.879657 -0.192356
0.665413 -0.145353 -0.316314
0.557811 -0.362217 -0.202840
-0.554987 0.062724 -0.177923
0.335209 0.633421 -0.040643
0.543010 -0.234635 -0.317063
-0.185288 -0.289999 0.107569
0.704787 0.294880 -0.140058
-0.332776 -0.602388 -0.246821
0.268640 -0.198322 -0.287340
0.704317 -0.119906 -0.316465
0.351721 0.419081 0.214170
0.174558 -0.818365 -0.034437
0.214029 -0.724190 -0.255571
0.739319 -0.073305 0.032563
-0.119298 0.688247 -0.134384
0.138639 0.805247 0.182069
0.080096 -0.038917 -0.249058
-0.075555 -0.826958 0.006419
0.198101 0.161044 0.112806
-0.170706 0.586308 -0.143257
0.314274 -0.196823 -0.291283
0.683303 0.240527 -0.266686
-0.314545 -0.630460 -0.017265
0.199505 -0.327238 -0.298188
0.232243 0.392904 -0.205513
-0.041150 -0.204001 0.086035
0.110513 0.752364 0.199291
0.838070 -0.053271 -0.219687
-0.535549 -0.328798 0.114328
-0.082346 0.193618 -0.203431
0.238064 0.334850 -0.213752
-0.246227 0.103405 -0.200540
-0.121630 -0.174152 0.097303
-0.222319 -0.376605 0.287161
0.050723 -0.925734 -0.152819
-0.448344 0.285494 0.188002
0.133620 0.824039 -0.109252
-0.108494 0.302833 -0.186553
0.469769 0.241591 -0.247166
0.381245 -0.155537 -0.291877
0.008376 -0.340653 0.063391
-0.629356 0.263606 0.201522
0.558974 0.285822 0.096628
-0.342383 0.303972 0.180840
0.423994 0.369275 -0.226054
0.431019 0.233714 0.101320
-0.127835 -0.214638 0.092489
0.148823 0.811005 -0.131728
-0.139537 0.441466 -0.165323
0.485732 0.037033 0.070232
-0.350713 0.426493 0.197868
-0.178363 -0.459294 0.272190
0.404367 -0.407440 0.154035
0.431914 0.004965 0.070857
0.194615 0.133419 0.109453
-0.217997 0.622831 -0.134115
0.061967 -0.384754 0.052670
-0.261330 -0.678026 -0.055922
-0.613631 0.225131 0.194985
-0.185057 -0.737024 -0.300564
0.454964 0.318313 0.314139
0.063849 0.682605 0.295178
0.331678 0.161031 0.146317
-0.323482 -0.132823 0.193245
-0.109424 -0.667822 0.030628
-0.092902 -0.486861 0.053163
-0.482889 -0.467980 -0.142565
-0.011663 -0.004941 0.317406
0.356735 0.170978 -0.246286
-0.043565 0.251071 0.146695
0.392180 0.184027 -0.247770
0.087261 -0.065246 0.297717
0.200489 0.181775 -0.230673
0.037152 -0.922440 -0.016491
-0.072894 0.527252 0.345380
-0.174621 0.050237 0.339524
-0.104501 -0.386144 0.275202
-0.087364 0.619144 0.407165
-0.295480 0.184323 -0.185323
-0.274746 0.298188 -0.172082
0.830172 -0.040336 0.028697
0.407122 -0.193391 0.236358
-0.262664 -0.501352 0.175162
0.670114 -0.124993 -0.314036
-0.318046 -0.386186 0.198136
-0.446351 -0.456522 -0.256746
-0.523255 0.065286 0.208836
-0.087112 0.938562 -0.104059
-0.661111 -0.269791 -0.212455
-0.156710 -0.531476 0.260638
0.100477 -0.117394 0.084685
-0.562469 0.426236 -0.128964
-0.473471 0.121741 0.168533
0.907579 0.058559 0.034807
-0.443055 0.034003 -0.191895
-0.055318 0.841468 -0.119840
-0.083654 -0.606388 0.043634
0.065681 -0.593201 -0.321367
-0.274684 -0.261621 0.099576
-0.579008 0.042913 0.359632
-0.508169 -0.139524 -0.209033
0.492935 0.494774 -0.203351
-0.125686 0.357170 0.168239
-0.313072 0.055250 0.334926
-0.006362 -0.216872 -0.264847
0.090281 0.659195 0.271528
0.320947 -0.066116 -0.274528
-0.060311 -0.865216 -0.047065
0.091608 -0.635974 -0.329401
0.462033 0.521367 -0.159706
0.191769 -0.663272 -0.342117
0.880793 -0.058772 0.021654
-0.415977 -0.534582 -0.051091
0.769804 0.148903 0.059309
-0.732007 -0.026107 -0.173656
-0.586369 0.312768 -0.141865
0.088810 0.592921 -0.165931
-0.595290 0.409423 -0.126408
-0.211480 -0.271827 0.205178
-0.402153 0.135900 0.163941
-0.731538 -0.239566 -0.088976
0.356039 0.144591 -0.249728
-0.438210 0.005510 0.357505
-0.463454 0.388834 -0.142917
-0.169604 0.238889 -0.189500
0.660021 -0.174850 0.026273
0.938831 0.072127 -0.030597
0.078610 0.464442 -0.182069
0.341401 0.455845 0.138955
0.430005 0.083729 0.081491
-0.215061 -0.543959 0.141764
0.265139 0.696123 0.008799
-0.121764 0.052875 -0.218547
-0.134473 -0.115927 0.106202
0.050979 -0.392264 -0.293346
-0.436388 -0.426686 0.092328
0.108535 -0.834918 -0.273252
-0.229387 -0.528141 0.090046
-0.491954 -0.343357 -0.237577
-0.147542 -0.633205 -0.307330
0.368280 0.593556 0.147818
0.232035 0.519755 0.364978
-0.336393 -0.239472 0.108118
-0.316650 -0.184238 0.113663
0.058302 0.713290 -0.147175
-0.020302 -0.535851 -0.305947
0.317196 0.419355 0.343915
0.569434 0.270540 -0.252366
-0.492356 -0.142057 0.219231
-0.006936 0.187507 0.134928
0.339785 0.154865 0.118144
-0.674657 0.321090 -0.118000
0.039544 0.705734 0.283868
0.413706 -0.176048 0.048468
0.565095 -0.018477 0.055657
0.371429 0.595927 0.038602
0.135604 -0.679147 0.214496
0.296469 0.261691 0.324855
-0.118789 0.473831 -0.162908
-0.122787 -0.207071 0.093036
0.172308 0.527414 0.371416
-0.311871 0.152134 -0.188111
0.166752 0.790612 -0.054707
-0.253793 -0.675455 -0.253298
-0.009254 -0.892884 -0.008354
0.083811 0.011980 0.103380
0.213264 0.615658 -0.174205
-0.095787 -0.134741 0.263949
0.554570 0.429981 -0.048094
-0.352426 -0.480840 0.077516
-0.136346 0.076250 0.224304
0.439219 -0.219537 0.160585
0.428092 0.538886 0.129256
0.326729 -0.617403 -0.002257
0.589556 0.386136 0.107176
0.825321 0.183040 -0.143053
-0.621503 -0.337036 -0.187137
0.057747 0.685179 0.358986
0.050648 0.897624 -0.037053
-0.008764 -0.553752 -0.309372
-0.007673 -0.485264 -0.300374
-0.792529 -0.182735 -0.092426
-0.153533 -0.099955 0.317662
0.521987 0.453980 0.081246
-0.509672 -0.452090 0.042856
-0.662856 -0.297360 -0.213052
-0.397992 -0.135015 -0.218433
0.155223 0.800359 -0.034834
0.616368 0.008178 -0.291471
-0.191186 -0.740918 -0.102863
0.021475 -0.697223 -0.331171
-0.096939 0.548604 0.365731
0.849676 0.125804 0.048993
-0.280253 -0.116519 -0.226662
-0.880020 -0.101330 -0.094899
0.429200 -0.359475 0.063639
0.048572 0.388776 0.156623
-0.021325 0.486648 0.194709
0.076463 0.863584 0.170297
0.161382 0.043937 -0.245431
0.302188 0.580457 -0.186951
0.295544 0.671372 -0.063315
-0.500552 0.201329 0.181561
0.473381 0.504805 -0.035609
-0.262266 -0.151474 0.113078
-0.236331 -0.531610 -0.285779
-0.469907 -0.055963 -0.201407
-0.261256 -0.504224 0.207401
0.320042 0.446587 0.253859
0.021254 0.445450 0.228504
0.112302 -0.077891 -0.257157
0.839391 0.016793 0.035448
-0.089537 -0.238457 -0.260165
0.779567 0.105621 0.052675
-0.192880 -0.289556 0.243843
0.041855 0.894090 0.204256
0.570399 0.423844 -0.224784
0.243598 -0.517858 -0.327507
0.161284 0.596284 0.208532
0.000315 0.530549 0.387441
0.825537 0.183276 -0.152062
-0.113393 -0.534761 0.048661
-0.128454 0.384151 0.172074
0.728703 0.274162 -0.171048
-0.014832 0.961585 -0.101510
0.011625 -0.064330 -0.246219
0.480199 -0.008267 0.064718
0.895368 0.109051 0.040671
0.023609 -0.460448 0.046098
-0.187967 0.005576 -0.218821
0.250924 0.706808 0.060801
-0.220052 -0.418468 0.281396
0.102341 -0.700007 0.214745
0.262597 0.332448 0.337327
0.120453 -0.099968 -0.260829
-0.286847 -0.652060 -0.102493
0.051849 -0.552201 -0.314667
0.318510 0.451459 0.182757
-0.114889 0.383724 0.170786
0.124413 0.625749 0.307312
-0.119645 0.577294 0.209140
-0.025960 0.484904 0.319469
0.240909 -0.138114 0.069188
0.096315 0.129105 -0.228214
0.397182 -0.403694 -0.326283
0.142638 0.184198 0.120915
0.449365 0.248901 -0.244344
-0.344848 -0.575295 -0.281732
