-0.683649 0.225610 0.001965
0.522790 0.262563 0.292160
0.397711 -0.247883 0.027630
0.460519 -0.263017 0.018205
0.638830 -0.527839 -0.112147
0.640824 -0.240880 -0.227584
-0.666808 -0.389634 -0.219335
0.504647 0.487994 0.173837
-0.404581 -0.415316 0.302994
-0.449399 -0.546176 0.155761
0.361309 -0.148103 -0.300963
0.511839 -0.128868 -0.315310
0.274760 -0.231896 0.252595
0.097185 -0.596604 -0.337375
-0.421896 -0.552276 0.184883
-0.043198 0.134283 0.134762
0.489791 -0.429518 0.057569
-0.394111 0.095504 -0.178463
0.148270 0.106552 -0.238805
0.612582 -0.037367 -0.313236
-0.482712 -0.371945 0.318363
0.641580 -0.049617 -0.309192
0.596932 0.142659 0.062852
-0.538602 -0.346568 0.322933
0.374014 0.660922 -0.004495
-0.605602 0.199780 -0.138811
0.500393 0.659161 -0.058201
0.626048 -0.054484 -0.317316
-0.588428 -0.228610 -0.204383
0.076862 0.492472 0.366196
0.011757 -0.239345 -0.274565
-0.354420 0.111485 0.349240
0.069782 -0.518615 -0.322663
0.124769 0.575518 -0.166485
-0.545165 -0.254721 0.227259
-0.031687 -0.449561 -0.300814
-0.716923 -0.248701 -0.051687
-0.569355 -0.461769 0.125029
0.344795 -0.323163 0.231040
-0.437424 -0.374229 0.312848
-0.722684 -0.438812 -0.011415
0.127357 0.028080 -0.248067
0.366587 0.534779 0.147400
0.101443 -0.286865 0.209265
-0.598417 -0.073512 0.167357
0.377595 0.359421 -0.227465
0.297279 -0.660944 -0.369795
-0.663636 0.295769 0.132954
-0.327102 -0.227607 0.306404
-0.333773 0.177030 -0.173253
-0.360254 -0.191039 -0.224880
-0.300099 0.720641 -0.077294
-0.510295 -0.281713 -0.221197
-0.048260 -0.144979 -0.253694
-0.080593 0.559896 0.202232
-0.355382 -0.339891 -0.247539
-0.316696 0.087350 0.246713
-0.650050 0.450361 0.172790
-0.539835 -0.283415 0.283895
0.268320 -0.402394 0.228015
0.187688 0.406455 0.357331
0.438551 -0.452672 0.201096
0.381221 -0.142649 0.045140
0.406667 -0.509542 0.085110
-0.304556 0.134517 -0.182905
0.078104 0.203613 0.131194
0.628307 -0.296671 -0.304046
-0.438124 0.699441 0.146414
0.686153 0.168034 -0.045625
-0.037080 -0.125551 -0.252087
0.678455 0.174810 -0.111504
0.087248 0.310308 0.179734
0.443637 -0.278959 -0.329802
-0.170882 -0.149715 -0.240385
-0.282884 0.617409 -0.113679
0.330564 -0.119015 -0.293131
-0.128178 0.671056 0.186502
0.219476 -0.692914 -0.135100
-0.383230 -0.521293 0.284818
-0.555308 -0.370220 0.197555
-0.028467 -0.119493 -0.252172
-0.054302 -0.005791 0.151341
0.490553 0.157597 0.077227
0.165203 -0.647351 -0.352683
0.702043 0.570818 -0.100902
-0.053524 -0.657042 -0.248006
-0.133658 -0.403147 0.065299
0.444359 -0.720285 -0.057642
0.026764 0.308630 -0.194914
-0.573165 -0.633044 -0.146819
-0.082675 -0.565813 -0.312249
-0.433380 0.283630 0.201527
-0.537548 -0.346710 -0.227734
0.682223 0.010896 -0.005556
-0.703151 -0.013704 -0.159362
0.116161 0.026424 -0.247033
-0.515173 -0.088802 -0.191995
-0.724473 -0.478965 -0.007576
0.033782 0.319730 0.362042
-0.592228 0.073176 -0.159138
0.066224 0.135857 0.122491
0.610858 -0.593292 -0.310199
-0.495752 0.137858 0.235091
0.257317 0.397865 -0.208011
-0.065331 0.298122 0.346729
-0.270116 -0.635124 -0.290882
0.569821 -0.688983 -0.346874
0.701579 0.484502 -0.065073
0.149436 0.665733 0.078928
-0.692174 -0.133887 0.097431
0.630173 -0.299861 -0.287369
0.013733 0.016408 0.302643
-0.283664 0.016331 -0.202841
0.659518 -0.055671 0.026251
0.293999 -0.512876 -0.347434
-0.510182 0.514435 0.244575
-0.530253 0.226906 0.204175
0.618418 -0.571479 -0.258568
-0.644703 0.397526 0.240641
0.637461 -0.555027 -0.110836
0.670654 0.580543 0.119447
-0.558648 -0.426376 0.196096
-0.328635 -0.241119 0.300106
0.431167 -0.329122 -0.335825
-0.269469 0.506752 0.215926
0.640949 -0.317225 -0.191524
0.152915 0.096802 -0.240784
-0.659242 0.324242 0.155716
0.289099 0.288990 0.226057
0.414754 0.096147 0.285306
-0.172884 0.339710 -0.167484
0.163582 -0.417381 -0.318351
0.594829 0.396997 0.228990
-0.488144 0.116737 0.381868
-0.343513 -0.148604 0.136326
-0.480032 0.062695 -0.173516
0.358606 -0.003378 0.173071
0.222002 0.506201 0.192085
-0.630511 0.685724 0.224101
-0.368624 0.081474 -0.183459
-0.618730 0.061283 -0.157875
0.206510 -0.405954 0.163927
-0.241650 0.691761 0.098212
-0.392066 -0.323674 0.315171
-0.308887 0.495568 -0.128799
-0.703132 -0.334950 0.100353
0.723359 0.586522 0.065711
0.124043 0.659157 -0.153983
-0.665765 0.346088 0.092497
-0.141257 -0.411889 0.064869
-0.686149 0.374868 -0.086928
-0.399863 -0.240754 0.328375
-0.467135 -0.070619 -0.194785
0.421381 0.088186 -0.272743
0.559187 0.030686 0.106467
-0.204014 -0.426158 -0.277646
0.642254 -0.426726 -0.130633
0.641180 -0.413267 -0.145566
-0.675000 0.354031 0.013553
0.392824 0.672102 -0.094167
-0.721051 -0.232429 -0.092813
0.566258 0.477528 0.216237
0.675530 0.052467 -0.079210
-0.464586 0.319306 -0.137178
-0.456719 0.476702 -0.114706
0.374667 0.284067 -0.238319
-0.567942 -0.101979 0.159647
-0.166865 0.159842 -0.194879
-0.626853 0.125929 0.200220
-0.697158 0.030320 -0.018574
0.572181 -0.711336 -0.188552
0.339384 0.480664 0.312820
0.314895 0.101503 -0.258596
0.505127 -0.426322 -0.358710
0.292900 -0.692526 -0.176371
0.379537 0.392889 0.333393
-0.701989 0.121026 -0.099591
0.664636 -0.224276 -0.041037
0.332197 -0.690775 -0.209479
0.301144 0.112024 0.092106
0.272822 0.484799 0.318210
0.596526 0.535629 0.121249
0.259511 0.481157 0.351192
-0.467148 -0.333617 -0.233835
-0.362904 0.117598 0.310052
-0.715172 -0.436411 0.048734
0.638637 0.168098 -0.285705
-0.362972 0.075741 -0.184956
-0.368917 -0.551935 0.154669
-0.351663 -0.345504 0.160231
0.350491 0.571558 0.154700
0.056704 0.053725 0.304671
-0.537189 -0.103219 0.222768
0.332396 0.007737 -0.274519
-0.487498 0.115548 0.390016
0.202450 -0.281508 0.253492
-0.223817 -0.139250 0.114787
-0.517876 0.706706 0.136380
-0.457285 0.159076 0.185764
0.552555 -0.703982 -0.230757
0.270643 -0.524644 -0.346513
-0.458524 0.547566 -0.103978
-0.235407 -0.449648 0.070022
0.710788 0.541555 -0.016166
-0.679991 -0.014394 0.141932
0.430474 0.166238 -0.262192
-0.390760 -0.274868 0.322269
-0.415603 0.113770 0.365011
0.629527 -0.384429 -0.253822
-0.089917 0.269461 -0.187396
0.316094 0.110665 -0.257373
0.100643 0.662989 0.124100
-0.445409 0.359116 -0.133459
-0.334036 -0.271695 0.270095
-0.264584 0.695609 0.082766
0.622694 -0.708585 -0.160773
-0.373746 -0.146968 0.339316
0.380039 0.373571 -0.225643
-0.433192 -0.373041 -0.243569
0.270115 -0.670950 -0.318436
0.589461 0.637212 0.051773
-0.194414 0.697569 0.031980
-0.658281 0.269547 0.188657
-0.338569 0.436996 0.213465
-0.463187 -0.413656 -0.246172
0.705418 0.300607 0.050624
-0.597224 0.377544 0.234195
0.414587 -0.712054 -0.100783
0.352096 -0.258902 0.044586
-0.755797 -0.582976 -0.215268
0.368949 0.659544 0.007993
0.343749 -0.562301 0.148611
0.298781 0.122893 0.093990
0.120648 0.682002 -0.022109
0.324842 -0.505610 -0.349880
0.008981 -0.181732 0.230780
0.179256 -0.313693 0.251364
-0.694302 0.038965 0.000749
-0.543912 -0.545943 0.203660
-0.658065 0.485555 -0.090382
0.622428 -0.589019 -0.217817
-0.719772 -0.647071 0.030191
0.538431 0.343237 0.307862
-0.059548 -0.003075 0.121899
0.581906 0.313567 0.161906
-0.639140 0.263564 0.222061
0.385463 0.359816 -0.228305
0.082727 -0.100407 -0.262045
0.691306 0.424369 -0.121246
-0.406871 0.305859 -0.145770
0.119263 0.690176 -0.079731
-0.052238 -0.008368 0.168981
-0.209864 -0.399108 -0.272961
0.495305 -0.451017 0.194855
-0.286933 -0.670399 -0.030264
-0.721461 -0.175419 -0.122324
0.296778 -0.506879 0.048059
-0.559647 -0.529327 0.235196
0.060624 0.702659 -0.138090
-0.124027 -0.494188 -0.296888
0.268167 0.236172 -0.233260
0.620479 -0.640878 -0.209907
0.691409 0.257197 -0.043682
-0.451694 -0.192897 0.341404
0.562032 0.659671 -0.094160
0.635325 -0.575547 -0.118838
0.629221 -0.239624 -0.322772
-0.704913 0.138622 -0.131513
-0.212949 -0.305798 -0.258753
-0.561589 0.405287 -0.113326
-0.128522 -0.490156 -0.295776
0.680137 -0.021561 -0.007672
0.082194 0.067346 -0.237076
0.224929 0.262956 0.123227
0.655086 -0.015191 -0.214864
-0.646458 0.445958 0.204102
-0.392780 0.595239 -0.104412
-0.355317 -0.458973 -0.265228
-0.008614 -0.307133 -0.282303
0.197072 -0.023953 0.083809
0.100920 -0.502823 -0.323877
-0.694553 -0.257166 0.134604
-0.511978 0.051500 0.357345
-0.661744 0.466328 0.070107
-0.273570 -0.028449 -0.210643
0.533012 -0.596388 -0.387149
-0.373978 0.446777 0.218964
-0.034618 -0.672496 -0.147605
0.290137 -0.209564 0.254154
-0.313161 0.366061 0.200028
-0.324994 0.690479 0.151068
-0.694674 -0.049385 0.038265
-0.594867 0.070666 0.188359
0.702993 0.267095 0.046232
-0.216780 0.575917 -0.127394
-0.343025 0.679345 0.239997
-0.550132 -0.100057 0.157897
-0.406574 -0.440222 -0.256586
-0.342381 0.549922 0.230668
0.613068 -0.680937 -0.251954
-0.659883 0.417005 0.107917
0.543602 -0.072995 0.207624
-0.089494 0.546409 -0.146322
0.215797 0.017800 -0.259700
-0.097175 0.322671 -0.178666
-0.448791 -0.665192 0.017441
-0.496089 0.128893 0.299265
-0.526518 0.335835 -0.127646
-0.185325 -0.018325 -0.219225
-0.700744 -0.247430 0.079656
-0.356855 -0.074266 0.348181
0.507071 -0.352759 -0.348009
-0.592407 0.299662 -0.125488
0.069055 0.533047 -0.166424
0.236174 0.491364 0.290562
-0.615934 0.706150 0.191765
-0.713000 -0.490487 -0.229032
-0.362067 0.481357 0.222737
-0.062937 -0.039959 0.258012
-0.186193 -0.166829 0.106392
-0.508254 0.449951 -0.112789
-0.557460 -0.545436 0.207143
0.526840 0.286415 0.119776
0.122795 0.698143 -0.138453
-0.708349 -0.314387 0.048369
0.465763 0.506668 -0.215677
0.373609 0.296581 0.127557
-0.348335 -0.291424 0.162549
0.454703 0.271341 0.265200
-0.398052 -0.660951 -0.039437
-0.387512 0.328514 -0.144619
0.386911 0.242517 -0.245888
0.492042 -0.441903 0.115247
-0.724480 -0.345564 -0.068857
0.666618 -0.013062 -0.121809
0.002783 -0.236648 -0.273139
0.146965 0.500278 0.273716
0.264388 -0.193464 0.259487
-0.750558 -0.533695 -0.195161
-0.706082 -0.216357 0.021872
0.250887 -0.316674 -0.313375
0.669186 0.125449 -0.164429
0.366712 0.547716 0.149306
0.711754 0.427780 0.043928
-0.697260 0.100283 -0.051510
0.046851 0.285316 0.146897
0.027002 0.181674 -0.213792
-0.305495 -0.654481 -0.134155
-0.288414 -0.140357 0.122005
-0.423538 -0.142913 -0.210502
-0.701757 -0.057977 -0.015551
0.137147 -0.703184 -0.010199
0.462324 -0.597243 -0.379198
0.589809 -0.261462 0.003661
-0.446568 -0.669066 0.043932
-0.463840 -0.201872 -0.214650
-0.559447 0.116816 -0.156404
0.371097 0.618550 0.159323
-0.673088 -0.357361 -0.213826
-0.594599 0.496287 -0.096041
0.160802 -0.352031 0.066534
0.583963 0.365401 -0.250160
0.348108 -0.592397 -0.365426
-0.658977 -0.159851 -0.186111
-0.324949 0.638056 0.241763
0.127106 0.167300 0.120202
-0.069196 -0.149578 0.095584
-0.628247 0.311294 -0.119665
0.255745 0.665966 0.021517
0.667322 -0.125851 -0.064302
0.379423 -0.035223 0.269837
0.382667 -0.433305 0.210358
0.580464 0.043071 -0.297621
-0.069156 0.608121 0.208086
0.238076 0.502272 0.211707
0.293929 0.161824 0.100325
0.325779 0.680808 -0.121158
-0.543032 -0.539674 0.158447
-0.724859 -0.185184 -0.145546
0.050417 -0.134120 -0.263359
-0.312650 -0.648715 -0.171564
-0.056811 -0.302248 0.071499
-0.641639 0.171029 0.208607
0.506617 -0.178168 0.025536
0.418383 0.026997 0.274624
-0.290689 0.497298 -0.130622
0.478212 0.452674 -0.225116
-0.346003 -0.299424 0.185233
-0.048491 -0.659688 -0.231758
-0.112106 0.059924 -0.215973
-0.481807 -0.654158 -0.044004
0.721745 0.526644 0.080023
0.635549 -0.281479 -0.251962
0.647114 0.015236 -0.293835
-0.083393 0.310974 0.264461
0.097671 0.678218 -0.148139
-0.495453 0.436874 0.231375
-0.289592 0.528417 0.221442
0.685507 0.006809 0.023098
-0.695336 -0.033193 0.025436
0.610907 -0.723710 -0.120527
-0.680079 0.124438 0.077500
-0.703379 0.143605 -0.121291
0.378908 -0.369215 -0.335806
0.011511 0.039646 0.201492
0.580836 0.090006 0.255774
0.603962 -0.610994 -0.358311
0.516312 -0.691753 -0.299041
0.579359 0.274362 0.178272
0.677007 0.275744 -0.169630
0.666012 0.282135 -0.262226
-0.150911 0.094126 0.141108
0.276241 0.285910 0.254789
-0.407118 0.686233 0.224438
0.105534 0.453963 -0.182336
0.381742 -0.216095 0.034174
-0.312587 -0.074084 0.134608
0.169085 -0.662857 -0.323230
-0.466539 0.330077 -0.135356
0.675523 0.413769 -0.245077
-0.672266 0.310405 0.055867
0.555377 0.063697 0.060253
-0.457875 -0.191478 0.342321
0.169871 -0.159766 -0.280818
0.106840 -0.609885 -0.340451
0.550197 0.315620 -0.253693
-0.343710 -0.025775 -0.202231
-0.096335 -0.413626 0.059478
0.076104 0.253399 0.138815
-0.660066 0.473080 0.080688
-0.004354 -0.660681 -0.247815
0.169085 0.597617 -0.168268
0.455909 0.276106 -0.248785
0.396248 0.286305 0.189039
0.689494 0.537385 -0.187885
0.592681 -0.706111 -0.236596
-0.103862 0.093794 -0.211886
-0.107818 -0.638251 -0.320132
-0.100646 -0.244809 -0.262531
0.574033 -0.434556 -0.367807
0.432835 0.479499 -0.215948
0.134994 -0.202066 -0.283113
0.319670 0.668268 -0.028439
0.368163 -0.038084 0.266930
0.649759 -0.398350 -0.082460
-0.728418 -0.388052 -0.081470
0.602649 -0.721245 -0.133799
-0.464210 0.122514 0.328085
0.685961 0.138205 -0.033496
0.649430 -0.086512 -0.228253
0.541694 0.271801 0.216306
0.446647 -0.104861 0.043274
0.269126 0.390179 -0.210502
0.080879 0.070071 -0.236521
-0.412021 0.540387 -0.110358
-0.326499 0.347615 -0.148755
-0.480745 0.520701 -0.105427
-0.380081 -0.555284 0.184430
0.673114 0.115320 -0.127751
0.244380 0.682240 -0.088695
-0.181078 0.251053 0.167857
-0.447618 0.447485 -0.120084
-0.419610 0.718473 0.000854
-0.450438 -0.651394 -0.080184
0.423097 0.674496 -0.127133
0.382753 -0.510364 -0.357204
-0.676145 0.174805 0.086466
0.588356 0.609192 -0.214463
-0.351347 -0.246083 0.117184
-0.350810 -0.337939 0.099797
0.611517 0.068460 -0.297400
0.639982 0.587715 0.124017
0.179655 0.288171 0.289297
-0.225431 0.717096 -0.091146
-0.662601 0.130415 0.204972
-0.407590 0.112504 -0.174399
-0.413039 -0.328735 0.316817
-0.732934 -0.619845 -0.157254
0.633626 -0.692068 -0.079211
0.142876 0.202201 0.123582
0.518862 0.152391 -0.274349
-0.657645 0.640954 0.023391
0.524801 0.232663 0.084460
0.638028 -0.395728 -0.179321
0.187339 0.023256 -0.255638
0.020682 -0.053247 -0.247952
-0.662569 0.289220 0.144657
0.664354 0.132768 -0.207192
0.586772 0.418295 0.104941
0.431274 -0.417157 0.207201
0.382253 0.182992 -0.254194
0.394573 -0.525492 -0.360801
-0.635651 -0.118918 0.164870
0.118050 0.082299 -0.238953
0.564713 -0.024853 0.177021
0.328985 -0.446203 0.214577
0.384385 -0.703507 -0.145964
0.639674 0.405073 0.096933
0.012703 0.123581 -0.220784
-0.692793 -0.388820 0.131323
0.491231 0.168567 0.078779
-0.547745 -0.639527 -0.113871
0.250431 0.497345 0.240394
-0.709048 -0.140666 -0.177540
-0.551484 -0.246239 -0.211223
-0.156190 -0.132490 0.108063
-0.279880 0.027580 -0.201603
0.634833 -0.225885 -0.283321
-0.726990 -0.505592 -0.015879
0.481291 0.222435 -0.259655
-0.180008 0.445323 -0.150988
-0.726108 -0.440762 -0.038440
-0.265161 0.307344 0.185824
0.040460 -0.030925 0.309212
0.573391 0.058414 0.209568
0.096570 -0.344523 0.047694
-0.742067 -0.610145 -0.090841
-0.238719 0.424117 -0.147427
-0.067970 0.704111 -0.081021
0.058463 -0.679816 -0.144163
-0.539744 -0.171100 0.233093
0.657244 0.450195 -0.245944
-0.588239 -0.049086 0.169821
0.581974 -0.084948 0.030766
-0.677248 0.049612 0.134930
-0.737569 -0.451210 -0.127105
0.314590 0.085702 0.086661
-0.311856 0.199260 0.175112
-0.610827 -0.576099 -0.253420
-0.351932 -0.641022 -0.205879
-0.352418 -0.263203 0.116308
-0.539988 0.087457 -0.162987
-0.380724 -0.643567 -0.172619
0.352873 -0.566614 0.124149
-0.119016 0.569813 0.208096
0.508920 0.142288 -0.274713
-0.557244 0.297743 -0.129791
-0.513415 -0.542989 -0.259636
-0.736041 -0.465048 -0.108295
-0.155321 0.705488 -0.045044
0.194112 0.208782 -0.228864
-0.685345 0.358826 -0.073003
-0.652202 0.514359 0.125873
0.634842 0.461625 0.105882
0.524850 -0.707240 -0.192968
0.244195 0.268301 0.121819
0.689088 0.449551 -0.150888
-0.009917 -0.661437 -0.239503
-0.004171 -0.129234 0.299715
0.236067 -0.695650 -0.124271
-0.702289 -0.261501 0.073513
0.579814 -0.604966 -0.046202
-0.702490 -0.371081 0.122169
-0.244121 0.711097 -0.038522
-0.704542 0.129406 -0.124258
0.232394 0.380262 -0.207777
-0.286408 0.270959 -0.164719
0.619971 0.443540 0.104896
0.679302 0.452591 -0.232076
0.659004 -0.061353 -0.161729
-0.418039 -0.289103 0.323273
-0.076699 0.670198 0.165638
-0.724771 -0.269653 -0.106070
0.385299 0.654254 0.037182
0.452552 -0.678115 -0.362960
-0.363645 -0.666347 -0.018961
0.449591 0.668260 -0.096510
-0.442717 0.612873 -0.096087
0.349442 0.511368 0.145883
0.621275 -0.340582 -0.341232
-0.310640 0.081792 0.298645
0.230391 0.017065 -0.261477
-0.533547 0.032411 0.190221
-0.163755 0.676367 0.167248
-0.288139 0.177037 -0.178467
-0.579277 0.427434 0.239552
-0.109123 0.069347 -0.214915
0.560052 0.140115 0.159118
0.133068 -0.093338 -0.266749
-0.367739 -0.483380 0.080136
0.404334 0.062972 0.281571
0.312564 -0.526098 0.114705
0.601779 0.036505 -0.301032
-0.097917 0.157241 -0.203145
0.371826 -0.330611 -0.329265
0.235002 0.260507 -0.225857
0.538578 0.675592 -0.195509
-0.434417 0.609235 0.249993
0.566536 -0.352904 -0.354826
-0.691018 0.328438 -0.105317
0.457775 0.567125 0.141782
0.641263 -0.316434 -0.189332
-0.649355 0.435103 0.185457
0.238600 -0.163466 0.266888
0.362308 0.130905 0.141632
-0.682319 0.242131 0.005225
0.556409 -0.247346 0.009574
-0.675257 0.206432 0.079191
-0.565215 0.418917 0.236681
0.527991 -0.125640 -0.316676
-0.468933 0.128069 0.290907
-0.109043 0.075533 -0.214006
0.556223 -0.058740 0.123337
-0.719855 -0.319885 -0.202917
0.171026 0.505127 0.226486
0.322250 -0.457578 -0.342452
-0.386428 0.245539 -0.157063
-0.024903 0.134668 0.132728
-0.042805 0.001040 -0.232636
-0.200211 0.260157 0.171395
-0.209756 0.702267 0.006490
-0.536509 0.607269 -0.086201
0.218895 -0.468576 -0.332274
-0.024002 -0.064447 0.311601
-0.593387 0.734528 -0.022628
-0.060659 -0.690094 -0.008334
0.333379 0.607738 -0.185540
0.197285 0.660579 0.090626
0.036688 -0.382811 -0.298717
0.342878 -0.560902 0.126178
-0.094845 -0.052470 0.195481
-0.114011 0.220561 0.155665
-0.688814 -0.104487 0.111335
0.632456 -0.578255 -0.140989
-0.545221 -0.149482 -0.197571
-0.348394 -0.254601 0.320437
0.637189 -0.280272 -0.239149
0.480429 -0.704334 -0.190424
0.172102 0.118698 0.107843
0.025928 -0.169988 -0.265886
0.624428 0.634100 0.055654
0.553141 -0.029687 0.084877
-0.464419 -0.517299 0.294689
-0.592915 -0.571911 -0.254845
0.231026 0.688460 -0.126091
-0.492547 0.697690 0.187452
0.695576 0.257551 -0.009864
0.003125 0.600944 -0.148808
0.687897 0.196659 -0.044538
-0.279977 -0.651935 -0.165710
-0.420788 -0.630102 -0.247724
-0.652522 -0.076137 -0.174418
-0.529770 0.579775 -0.091053
0.374668 0.137647 0.239329
-0.591480 0.426472 -0.106764
0.494266 -0.458419 0.189417
0.046591 0.637986 0.199293
0.001110 0.699493 -0.084279
-0.690036 -0.623706 -0.152192
-0.505241 -0.664595 0.042783
-0.230026 0.685491 0.136873
-0.587119 -0.634472 -0.129310
-0.526460 0.077207 0.227454
0.213110 0.454333 -0.194575
0.347992 -0.318570 -0.324753
0.667614 0.299065 0.077999
-0.404791 0.349973 -0.139458
-0.597778 0.038508 -0.163651
-0.675928 -0.649480 0.024393
0.201428 -0.671162 -0.280905
0.625147 -0.536610 -0.219699
0.474589 -0.680582 -0.356907
0.421210 -0.483875 0.033453
-0.449003 0.131871 0.253313
-0.351931 -0.312766 0.143017
0.196953 0.136207 -0.239965
0.060532 -0.699175 -0.000848
-0.387505 -0.165374 -0.217954
0.156225 0.185193 0.119531
0.235962 0.009621 0.084349
0.185737 0.285179 0.307468
-0.719778 -0.393537 -0.008502
0.637987 -0.620189 -0.076637
0.403653 -0.704995 -0.145440
0.370476 0.525364 0.145557
0.251320 0.508058 0.163457
-0.721438 -0.373420 -0.031268
-0.297304 0.242149 0.179817
-0.665254 0.589920 -0.015233
-0.705264 -0.344779 0.087472
-0.518347 0.045234 0.308281
0.378623 0.494914 0.190524
0.599801 0.354711 -0.253557
0.542157 -0.698875 -0.261757
0.009357 -0.120522 -0.256647
-0.679074 0.345479 -0.015744
0.552349 -0.723745 -0.089576
-0.518631 0.535281 -0.098933
-0.635044 0.552602 0.248233
0.723146 0.570900 0.071141
-0.295761 -0.079130 0.131936
0.683665 0.319428 -0.135389
0.670927 0.230519 -0.198460
-0.675947 0.089003 -0.147221
-0.568748 0.679696 -0.071762
0.185241 0.184439 -0.231465
-0.487031 0.149478 -0.159830
-0.073825 -0.676785 -0.096428
0.180880 0.672716 0.012590
0.612905 -0.654512 -0.265412
0.268702 0.563326 0.162825
-0.307243 0.027293 0.351353
0.132865 0.320468 -0.205281
-0.746556 -0.487916 -0.183537
0.343810 -0.699194 -0.155468
-0.322152 -0.121691 0.298158
-0.661878 0.297352 -0.117892
0.640921 -0.384361 -0.160946
0.291048 -0.248072 0.248332
0.350197 0.520140 0.147099
-0.503639 -0.076860 -0.191540
-0.204626 -0.016257 -0.216712
0.530348 0.301135 0.302534
-0.520286 0.707862 0.129393
-0.573236 0.701657 0.201445
0.590678 0.657725 -0.095289
-0.118050 0.484404 0.195303
-0.553164 -0.395080 0.226447
-0.306506 0.037408 0.352722
-0.098841 -0.182095 -0.253425
0.141704 -0.680993 -0.179414
0.474417 0.471411 0.308065
0.444306 0.473275 0.310551
0.035308 0.456485 -0.173936
-0.357069 -0.377476 0.130825
0.556644 0.641000 0.041942
0.678580 0.288604 -0.162707
0.586377 0.107697 -0.288701
-0.682437 0.307772 -0.025864
-0.508806 0.646631 -0.083522
-0.552102 -0.550175 -0.256282
-0.412269 -0.458615 0.297443
0.167312 -0.257307 0.261101
0.477297 0.134492 0.242651
-0.668393 0.282115 0.100428
0.190492 -0.114185 -0.276406
-0.260411 -0.583706 -0.294595
0.680959 0.037567 -0.028104
0.004505 -0.234483 0.074554
0.591117 -0.548754 -0.386716
0.013873 0.087102 -0.226334
-0.509175 -0.628814 -0.210565
0.160466 0.113002 -0.239241
-0.039537 0.682414 0.058947
-0.725836 -0.249441 -0.124025
-0.617293 0.330733 0.229538
0.071649 -0.252048 0.164187
-0.078477 0.310643 0.264244
-0.330102 -0.184605 -0.227370
-0.014890 -0.269280 0.071604
-0.356393 -0.548668 0.214898
0.106589 0.020104 0.109828
0.441198 0.480429 0.261108
-0.103952 -0.229166 0.087738
0.642452 -0.104010 -0.277119
0.680922 0.101540 -0.057764
0.552875 -0.147406 -0.322752
-0.568328 -0.131418 -0.192248
-0.591255 0.279956 0.219023
-0.474578 -0.543278 -0.264117
-0.432982 0.581161 0.245660
0.112085 0.659382 0.143844
-0.189682 0.634958 0.225844
0.652100 -0.301946 -0.107610
0.018524 0.073385 0.118666
0.266681 0.321678 -0.220394
-0.076493 0.481220 0.338072
0.424615 -0.615180 -0.377552
0.556691 0.006199 0.097357
0.059534 0.291878 0.325826
0.554175 -0.281159 -0.342761
0.015253 0.555662 0.190651
-0.053209 -0.152976 -0.254316
-0.532524 -0.083752 0.251874
-0.535114 -0.029526 0.205868
-0.472415 0.040070 -0.177746
0.434423 0.271410 0.275347
0.449470 -0.587153 -0.376230
0.184396 0.628219 0.182095
-0.612269 0.733812 -0.007617
0.334981 -0.397917 0.221061
-0.254428 -0.638585 -0.274410
-0.369949 0.493499 0.225440
0.316148 -0.224286 0.248995
-0.729510 -0.411666 -0.079535
-0.504661 -0.505502 -0.255070
-0.677636 0.031163 0.140226
-0.600850 -0.647311 -0.030457
0.570360 0.033014 0.196506
-0.625397 -0.359844 -0.219644
-0.671387 0.570398 -0.076262
0.535199 0.269040 0.239415
0.200588 0.060370 0.095927
-0.354729 0.137875 0.170896
0.613306 -0.161446 -0.331742
-0.711904 -0.071854 -0.091924
-0.712465 -0.337205 0.025283
0.114537 0.214113 0.128590
0.092599 -0.184129 0.280505
0.430566 -0.586265 -0.026370
-0.638182 0.731633 0.021531
-0.335795 0.681298 0.222267
0.620768 -0.538856 -0.254376
0.040070 0.038566 0.306752
0.368397 0.046249 -0.272915
-0.658699 0.361555 0.143018
0.480372 -0.684631 -0.046667
-0.360527 -0.267989 0.319835
0.513681 0.659075 -0.064553
0.657405 -0.285035 -0.072117
-0.021270 0.076930 0.123740
-0.645777 0.039664 -0.157995
-0.376253 -0.169611 -0.219869
-0.690031 -0.077820 0.089172
0.302210 -0.163694 -0.296524
0.148160 0.293943 0.264607
-0.649255 0.476239 0.167399
0.687580 0.218832 -0.057300
0.600670 -0.616788 -0.382491
0.271233 -0.004158 0.078273
0.405641 -0.253520 -0.321682
0.438847 -0.339354 -0.338222
0.017845 -0.066954 0.306446
0.540646 0.270637 0.225163
-0.528739 -0.169180 0.321944
-0.563843 -0.502731 0.188772
-0.698611 -0.081447 0.020874
0.542050 0.255091 0.085819
-0.664894 0.010280 0.187396
0.625823 -0.571564 -0.198145
0.451223 -0.051998 0.106190
-0.324528 -0.105741 0.271463
0.018526 -0.190452 0.110483
0.653762 -0.001897 0.034894
-0.383294 0.496503 0.227411
-0.528166 0.068937 0.217342
-0.152085 0.697289 0.011782
0.683524 0.462042 -0.201992
0.594135 0.428696 0.105644
0.589118 0.042585 0.048886
-0.439148 -0.658301 -0.036807
-0.528820 0.226941 0.204016
0.329061 -0.340793 0.230220
-0.546732 -0.510707 -0.251035
0.122059 -0.329176 -0.300509
-0.334230 0.618822 0.239967
-0.141066 -0.238945 0.090527
0.399606 0.650848 0.053991
0.535007 -0.692302 -0.304925
-0.301694 -0.615068 -0.294534
0.604911 0.104941 0.056340
-0.188503 -0.101600 -0.231227
-0.088282 0.446115 0.258051
0.189227 0.248758 -0.222370
0.230468 0.651873 0.135369
0.265182 0.162097 0.103650
0.261680 -0.091383 0.066413
-0.342482 -0.123275 -0.216849
0.307873 0.484132 0.304594
-0.106475 0.439873 0.187368
-0.398309 -0.035580 -0.197447
0.637613 0.125594 -0.291899
0.346947 0.164274 0.094630
-0.711332 -0.039232 -0.102226
-0.572114 0.447472 0.241709
-0.524537 0.727558 -0.008977
-0.520064 -0.169481 -0.203416
-0.538083 -0.484644 -0.248153
-0.702351 -0.093614 -0.004040
0.413060 0.137263 0.256553
0.148887 0.423979 -0.191743
0.662494 -0.312852 -0.017849
-0.108087 -0.027079 -0.229351
0.689435 0.649892 -0.091164
-0.089890 -0.249936 0.083047
-0.339867 -0.192124 0.186031
0.201977 0.608724 0.177191
0.301908 0.491205 0.257230
-0.529026 -0.514123 -0.253566
0.443573 0.293592 0.112208
0.494685 0.489189 0.170530
-0.273445 -0.656276 -0.138154
-0.256889 0.209424 -0.177229
0.373237 0.429804 -0.216516
-0.414894 -0.278785 -0.231664
0.050341 0.489736 -0.170717
-0.484174 -0.004179 -0.182972
-0.163632 0.523645 -0.141229
0.530294 0.137836 0.190991
-0.486188 0.089363 -0.168853
-0.737938 -0.591913 -0.065541
-0.685204 0.213405 -0.005120
0.162194 0.582304 0.177814
0.096438 -0.171332 0.281966
0.590545 -0.133407 -0.324978
-0.385784 -0.530894 0.283684
0.438270 0.642735 0.091631
0.650757 0.015072 -0.264052
-0.531402 0.523890 -0.099165
-0.035259 0.304174 0.287763
0.694428 0.420582 -0.094045
0.643447 -0.095673 -0.272839
0.014024 0.100185 -0.224409
-0.518098 0.518394 -0.101501
-0.516126 0.265525 0.208295
-0.135491 0.525685 0.203426
0.407740 0.361070 0.325445
0.302132 0.658051 0.053690
-0.418814 -0.041165 0.360176
-0.315286 -0.049022 0.320790
-0.698927 -0.128077 0.039698
-0.209636 -0.554541 -0.296067
0.358603 0.006762 0.168391
0.330883 -0.530875 -0.354322
0.039407 0.588895 -0.154744
0.458795 -0.441836 -0.002511
-0.620583 0.041735 0.187002
0.610069 0.111671 0.056750
0.390828 -0.688396 -0.257206
-0.498280 0.119232 0.369375
-0.603348 -0.661252 0.070368
-0.111339 0.300507 0.167231
0.507717 0.481414 0.219197
0.409941 -0.716993 -0.063096
0.297565 0.123475 -0.253354
-0.457573 0.138683 -0.164799
-0.339945 -0.099792 0.143019
-0.228130 0.159520 0.159643
0.656073 0.427108 0.098330
0.313430 -0.315774 0.235721
-0.661868 0.317871 0.137229
-0.281057 0.007790 0.143162
0.176569 0.151087 -0.235426
0.280900 0.616356 -0.178264
-0.082573 -0.128141 0.100295
0.388645 -0.035441 -0.287359
-0.630320 0.693288 0.222185
-0.480571 0.034598 0.378483
0.492088 0.259078 -0.255448
0.531026 -0.598113 -0.039609
0.140575 0.604004 -0.164062
0.443735 0.651662 0.025045
0.095716 0.387481 -0.191086
0.537518 -0.680733 -0.388825
0.579975 0.632588 0.089756
-0.439997 -0.263453 0.329591
-0.530770 0.675453 0.270836
-0.269435 -0.363173 -0.260818
0.595369 -0.407068 -0.366164
0.263688 0.300867 0.154606
0.196340 0.692917 -0.139720
-0.529456 0.029886 0.224744
-0.383538 -0.168505 0.337237
-0.680632 0.105738 0.081572
0.633032 -0.544435 -0.151809
-0.565025 -0.492049 0.174237
-0.311469 -0.387890 -0.259684
-0.679963 0.057741 -0.151404
0.436927 0.515318 -0.211097
0.528292 0.163733 -0.273743
-0.322223 -0.401563 0.087083
-0.395977 0.389379 -0.134614
-0.625256 -0.244996 -0.202607
0.113534 -0.656502 -0.000569
-0.646127 0.403773 0.226158
0.681528 0.255081 -0.123286
0.653871 0.514125 0.111503
-0.085506 0.647392 0.215786
-0.188640 -0.053684 0.123472
-0.352578 -0.374614 0.166134
-0.060786 0.137055 -0.210385
-0.437025 -0.328727 -0.236551
-0.527751 0.061116 0.224313
-0.489878 0.446343 0.232144
-0.674016 -0.167267 0.162075
0.153562 -0.286166 0.258387
-0.458289 -0.666351 0.030693
0.704432 0.621372 -0.104620
-0.586342 0.614201 0.268092
-0.666543 -0.613780 -0.235363
-0.040987 0.689396 -0.130634
0.221858 -0.697580 -0.103043
0.539857 0.535583 0.127718
0.473938 0.638326 0.104397
-0.446300 -0.628709 -0.244291
-0.098039 -0.674255 -0.101791
0.375227 0.089457 0.265998
-0.105840 -0.303743 -0.270688
0.324231 -0.093674 0.058924
-0.336007 -0.342319 0.286429
0.544308 0.284364 0.125250
0.565370 0.530091 0.123987
-0.423655 0.151731 -0.166738
0.151528 0.307642 0.165056
-0.151738 -0.421122 0.064696
-0.330006 -0.096143 0.133323
0.195679 0.664904 0.060595
0.603980 -0.373536 -0.362169
0.448266 0.637102 0.126599
0.188170 0.488087 0.339133
-0.536838 -0.514811 0.303335
-0.276528 0.130959 -0.186636
-0.719097 -0.413824 0.006362
-0.386256 0.560693 0.237281
0.625654 -0.537500 -0.215152
0.653601 0.110307 -0.284569
-0.479305 -0.283611 -0.225020
0.376835 0.474066 0.340285
-0.450721 0.149505 -0.163975
-0.047748 -0.254547 -0.270022
0.303504 0.105145 0.090815
-0.656145 -0.167196 0.160043
-0.423791 -0.310027 0.320823
0.392097 -0.067658 0.248976
-0.618451 0.309369 0.226498
0.177421 0.540555 0.169875
0.139157 0.396016 -0.194783
0.414209 0.607477 -0.194816
0.616126 -0.340865 -0.011137
-0.091752 0.450174 0.227892
0.642447 0.657921 -0.123838
-0.362260 -0.403268 0.100334
0.261985 -0.348347 0.236764
0.390472 -0.322547 -0.330198
-0.380141 0.161888 -0.170203
-0.283157 0.254362 -0.167555
-0.338701 -0.635403 -0.252931
-0.418508 -0.548070 0.153085
-0.435034 0.119061 0.337428
-0.692035 0.232498 -0.069584
0.658956 0.063942 -0.219621
-0.315197 0.096469 0.254752
0.281450 -0.444080 -0.335785
0.152628 0.533678 0.171687
-0.054836 0.101643 0.131245
-0.158785 -0.013336 -0.221517
-0.099988 -0.620345 -0.318368
-0.184392 0.693741 0.054052
-0.547478 -0.242570 -0.211135
-0.496160 -0.365436 0.320866
0.308638 0.281065 0.272383
-0.712302 -0.355487 0.034998
-0.223266 0.556916 -0.129474
-0.507272 -0.425939 -0.242958
-0.604238 0.481272 -0.097169
-0.368176 0.049328 -0.188283
-0.333871 -0.236220 0.255156
0.612999 -0.715364 -0.181205
0.364838 0.031232 -0.274738
0.572694 -0.719523 -0.130381
0.274251 -0.686429 -0.210112
-0.583104 -0.243617 -0.207220
-0.673171 0.236184 0.082553
0.544177 -0.193731 -0.328636
-0.509823 0.192433 0.196721
0.073780 0.518532 0.181787
-0.178538 0.342930 -0.166359
-0.124292 0.676711 -0.122997
-0.702035 -0.049995 -0.021480
-0.676501 0.219499 0.063055
0.676145 0.260792 -0.169797
-0.608913 0.111777 0.196069
-0.659842 0.236414 0.191128
0.638329 -0.340122 -0.202382
-0.007648 -0.685394 -0.069681
-0.155370 0.138054 0.148141
0.677239 0.575526 -0.229619
0.394799 0.636940 -0.188223
-0.355904 0.652284 0.247413
0.018744 0.384017 -0.182804
-0.553258 -0.361270 0.210167
0.484278 0.484061 0.212596
-0.557895 -0.327872 0.157031
0.605276 -0.208177 -0.337763
0.188220 -0.015552 0.086067
0.620458 -0.571389 -0.241975
-0.282455 -0.164137 0.117793
0.695499 0.274017 0.071093
0.636559 -0.120243 -0.317723
0.023936 0.613982 -0.149251
-0.455661 0.529017 -0.107059
-0.557771 0.624683 -0.081185
-0.337977 -0.615838 -0.290502
0.228705 -0.222100 0.259313
-0.224451 0.553831 -0.129797
0.057948 -0.332489 -0.293674
-0.014454 0.594925 0.199875
0.452748 -0.714517 -0.103214
0.058294 -0.368305 0.048537
0.640277 -0.102765 -0.295429
0.324700 0.680855 -0.120927
0.700119 0.424828 -0.049593
0.593960 -0.066566 -0.315443
0.140566 0.285711 0.327352
-0.027739 0.514394 0.264563
-0.419767 0.260372 -0.151051
-0.339570 -0.050994 -0.206449
0.594895 0.276861 0.284661
0.611942 0.009697 0.041394
-0.026730 0.700543 -0.077177
-0.475397 0.120369 0.349263
0.443596 -0.011070 -0.290020
0.697782 0.567082 -0.133933
-0.415019 -0.290248 0.322758
0.253632 0.311160 0.335645
0.639531 -0.239070 -0.238958
-0.538271 0.734042 -0.048060
0.297324 -0.684119 -0.238702
-0.249013 0.690396 0.111817
-0.511779 0.648032 -0.082974
0.586450 0.286964 0.211162
-0.521772 -0.117776 0.355164
-0.688519 0.007748 0.062230
0.659630 -0.324457 -0.035880
-0.521531 -0.187944 -0.205990
-0.686934 0.151156 0.009343
-0.359164 0.132639 0.200721
-0.563974 0.491902 0.247376
-0.220342 -0.453903 -0.279900
0.373481 -0.223479 0.034022
0.586152 -0.687821 -0.363731
0.469203 -0.277587 0.015049
-0.560439 0.166628 0.198674
0.030567 0.501487 0.326119
0.075403 0.493962 0.356329
-0.442686 -0.556208 0.223852
-0.520410 0.677578 0.269968
0.630361 0.631739 0.069393
-0.092412 -0.038589 -0.232852
-0.056358 0.505904 -0.156123
0.095768 -0.470132 0.029134
0.466974 -0.152819 0.033830
-0.199839 0.643148 0.228221
0.600540 -0.600635 -0.390968
0.137610 -0.262594 0.263710
-0.356334 -0.364114 0.130685
-0.060960 -0.445022 -0.296795
-0.418692 -0.330162 -0.238859
0.067030 0.144550 -0.223879
0.663745 -0.114821 -0.098532
0.309439 0.428457 0.346685
-0.005754 -0.675928 -0.138241
0.026164 0.499222 0.344601
-0.452331 0.585393 0.248500
-0.706759 -0.056164 -0.057168
0.598438 0.410105 0.252404
0.050160 -0.115527 0.295541
-0.716006 -0.181933 -0.074852
0.685608 0.303374 -0.112177
0.240536 -0.444181 0.130474
0.085105 -0.012654 0.306823
0.056960 0.241306 -0.208361
-0.684673 -0.055649 0.122688
-0.385353 0.374556 -0.138029
-0.326380 -0.081961 0.245446
0.366983 0.133125 0.178736
-0.396541 0.365424 0.209462
-0.704511 -0.364515 0.102671
0.096521 0.077835 0.110413
0.261724 0.661461 0.050538
-0.298962 -0.049314 0.136729
0.348357 0.655993 0.044140
0.631924 -0.475781 -0.192353
0.047902 -0.223459 -0.276337
-0.516445 -0.001111 -0.178829
0.025269 0.047861 -0.233463
-0.520990 -0.009874 -0.179611
-0.179472 -0.091795 -0.230803
0.304714 -0.125346 0.056452
0.646768 0.410319 0.096901
0.662071 0.050105 -0.187876
-0.723128 -0.127362 -0.157974
-0.660742 0.349633 0.131834
-0.220423 -0.317371 -0.259618
-0.002207 0.684228 0.026422
-0.496997 0.282055 0.208563
0.496661 0.135383 0.226133
-0.730431 -0.582947 -0.008437
-0.337566 -0.133134 -0.218874
0.081412 0.516986 0.188827
0.390313 -0.530546 0.195045
0.075800 0.360764 -0.192777
0.097581 0.296277 0.274473
-0.032679 0.706302 -0.115169
0.023956 -0.039723 0.309791
-0.316101 -0.051213 0.346946
-0.464280 -0.094857 -0.198710
-0.706503 -0.225986 0.022852
0.507726 0.135520 -0.275582
0.463180 0.663808 -0.071857
0.533971 0.520667 0.126176
0.043339 -0.220625 0.213189
0.156561 -0.347996 0.111137
-0.066475 -0.668901 -0.156565
-0.160001 -0.661265 -0.162025
0.620282 0.401298 0.098588
0.683859 0.205354 -0.081459
0.375348 0.298570 0.112451
0.635942 -0.233098 -0.270961
-0.135491 0.255640 -0.184240
0.100817 -0.021766 0.303674
0.668908 0.005853 -0.111815
-0.259343 0.696069 0.076738
0.631464 0.046350 -0.302963
0.348441 0.661028 0.008156
0.378596 0.388442 -0.223270
0.680147 0.473507 -0.234787
-0.476398 0.464433 -0.114279
-0.205465 0.680572 0.159106
-0.174765 -0.643784 -0.279072
0.337119 -0.373938 0.224378
0.455599 -0.376290 0.003904
0.115401 0.515142 0.184165
0.076956 0.270815 -0.206265
0.302060 -0.211895 -0.303665
-0.560357 -0.408570 0.173985
-0.088465 0.301620 -0.182787
-0.015353 0.697933 -0.064514
0.652734 0.041961 0.041523
0.251694 0.062784 0.090446
-0.120782 -0.053910 -0.231884
-0.179321 0.001860 -0.216914
-0.536007 -0.247975 0.298843
0.070720 0.687855 -0.037712
0.612946 -0.689439 -0.249048
-0.355289 -0.553253 0.226008
-0.648860 0.593847 0.116640
0.610602 -0.509053 -0.350945
-0.297730 -0.438224 -0.268728
0.060820 -0.093215 -0.258474
0.419038 0.646327 0.076073
0.144490 -0.359754 -0.307613
0.099390 -0.665892 -0.265021
-0.548202 -0.453971 0.293939
-0.674630 0.541250 -0.080219
-0.698585 -0.288010 0.115887
-0.680425 0.129486 0.072366
0.322128 0.210655 0.104353
-0.567431 0.706573 0.163315
-0.529391 -0.558368 0.284740
-0.480652 -0.215552 0.341349
-0.706187 -0.230151 0.027344
-0.279654 0.322049 -0.157904
-0.682042 0.019550 -0.156837
-0.617856 0.232539 0.215022
-0.307592 -0.638930 -0.244063
0.369063 0.651218 0.067366
0.444815 0.653734 0.009685
-0.521640 0.083584 0.263834
0.692229 0.346671 -0.078062
-0.365545 -0.044294 0.353624
0.078597 -0.660500 -0.292604
-0.155787 -0.490664 -0.292736
0.628918 -0.372329 -0.264344
0.696626 0.412783 -0.072545
0.285510 0.672356 -0.039703
-0.454568 0.238422 -0.150333
0.139127 -0.639648 -0.348560
-0.403842 -0.546114 0.131429
-0.354826 0.426663 0.213788
-0.722579 -0.595910 0.061533
0.313296 -0.667901 -0.362848
0.653441 0.574031 0.120447
0.456820 -0.478834 0.139055
-0.433058 -0.550044 -0.269866
-0.535546 -0.130486 0.248685
-0.006639 -0.538925 -0.316946
-0.334613 -0.025483 -0.203227
0.506296 -0.365632 -0.349832
0.632342 0.505118 -0.234943
-0.529597 0.721917 0.033941
-0.628834 0.618920 0.268438
-0.465644 -0.631157 -0.216670
0.426636 0.477755 0.287834
0.406956 0.081028 -0.272157
0.656558 -0.195411 -0.120153
0.702495 0.324896 0.015648
-0.473487 -0.042296 -0.189853
0.588383 -0.689809 -0.350711
0.652230 -0.390578 -0.065877
0.413609 0.499706 -0.210750
0.304144 0.655413 0.071464
-0.510482 0.491670 0.241229
-0.563219 -0.661509 0.051160
-0.307491 0.019619 0.352858
-0.659870 0.403638 -0.102339
0.347341 0.364507 -0.223252
0.518618 -0.092442 0.036893
0.685686 0.543699 -0.221832
-0.403795 -0.544054 0.116698
-0.716536 -0.543873 0.086931
0.316440 -0.290892 0.239072
-0.393133 -0.539707 0.074675
0.474004 -0.445548 0.066136
-0.667258 0.627260 -0.048710
0.615474 -0.485353 -0.322097
0.442734 -0.064064 -0.297790
-0.234504 0.705593 -0.004273
0.002231 0.617028 0.201251
-0.019030 0.113443 -0.218663
0.580180 0.315654 0.146874
0.640903 0.663290 -0.161350
0.593931 0.463946 -0.236667
-0.543211 -0.344370 0.284338
-0.719175 -0.285402 -0.053208
0.192660 0.286442 -0.217167
-0.525513 0.712116 0.101765
0.677276 -0.098443 0.004287
-0.682766 -0.122574 0.168954
0.434613 -0.631957 -0.381185
0.277357 -0.710633 -0.038965
0.127188 0.082862 -0.239914
0.127304 0.507440 0.232897
-0.334705 -0.214547 0.116279
-0.686248 0.003366 0.082766
0.694871 0.527718 -0.139606
0.246828 -0.474188 -0.336299
-0.479170 0.128015 0.296657
0.096480 0.278340 -0.207379
0.010624 -0.497085 -0.312706
0.061998 -0.136059 0.291140
0.352909 -0.560969 0.194802
-0.387553 0.245885 0.190685
-0.306042 -0.010976 -0.204338
0.175273 0.668188 0.047850
0.646188 -0.194569 -0.205098
-0.092746 -0.434641 -0.291621
-0.005906 -0.661288 -0.242669
0.660735 0.097836 0.048906
-0.654518 0.404096 0.157591
0.023754 -0.097225 -0.254833
-0.497397 0.129143 0.298162
0.170328 0.490606 0.330507
-0.056240 0.318431 0.196990
-0.662882 0.512548 0.039612
-0.539958 -0.045056 0.173499
0.222881 0.483034 -0.191430
-0.681374 0.448472 -0.081766
-0.651265 0.348776 0.209507
-0.315267 0.164885 -0.177171
-0.104294 0.019632 0.124720
0.192187 0.671215 0.017377
0.442505 0.096023 0.282116
-0.486480 0.056087 0.382349
0.033656 0.312785 0.190154
0.575209 0.093931 0.058100
0.236188 0.265584 0.122330
0.365310 -0.056908 0.186288
0.664647 0.104162 0.049398
0.516299 -0.527689 -0.375038
0.540439 -0.059225 -0.308237
-0.216056 -0.652870 -0.192555
0.326081 0.420622 -0.212490
-0.525772 -0.058355 0.295279
0.657933 -0.276616 -0.071672
0.234539 0.071804 -0.253823
0.061507 -0.047222 -0.251723
-0.632922 -0.646724 -0.017833
-0.328820 0.461461 0.215983
0.661871 -0.064588 -0.136869
0.372221 0.607222 0.157513
0.144896 -0.213444 0.270176
0.546510 0.636819 0.077100
-0.045605 0.174755 -0.206522
-0.714901 -0.176653 -0.182215
-0.494414 0.721519 0.018338
0.179317 -0.344822 -0.309375
-0.730864 -0.514718 -0.043287
0.289258 0.639312 -0.175810
0.450500 -0.487171 -0.361502
-0.177026 0.160260 0.153913
0.554976 0.524840 -0.223173
0.284388 0.680096 -0.094368
0.471417 0.235931 -0.256523
-0.012776 -0.222741 -0.269296
-0.458163 -0.352499 0.318445
-0.097803 -0.030792 -0.231078
-0.643521 0.600502 0.157124
0.516421 0.522861 0.128507
0.274706 0.110068 -0.252732
-0.548944 -0.460015 0.290659
0.651021 0.332035 0.084791
-0.256538 0.508807 0.214753
-0.448406 0.208178 -0.155528
-0.087730 0.666371 0.198739
0.109198 0.658551 0.151293
-0.171510 0.701222 -0.006105
-0.546914 0.715713 0.087310
0.674307 0.067566 0.042860
-0.549918 0.019995 -0.171870
0.649968 0.028125 -0.276474
0.383970 0.483900 0.266347
-0.164784 0.360476 0.182243
-0.133476 0.588043 0.212455
0.160634 0.287595 0.303384
0.256374 0.607221 0.170751
0.682576 0.463388 -0.210336
-0.361493 -0.506941 0.154167
0.456834 0.648511 0.040667
0.465194 0.660639 -0.050289
-0.655002 0.272467 0.214051
-0.586395 -0.648672 -0.028325
-0.367425 -0.024972 0.356708
-0.419538 0.040074 -0.183788
0.602496 0.501859 -0.232016
0.719167 0.453596 0.092528
-0.609794 0.188582 0.207574
-0.687502 -0.170965 0.152541
-0.684095 0.357277 -0.062101
0.613282 -0.385407 -0.017426
-0.274432 -0.670598 -0.035402
-0.456346 0.104998 -0.169941
0.644321 -0.550080 -0.057170
0.132429 -0.075255 0.292119
0.448521 0.132854 0.269432
0.526026 0.006121 0.259223
-0.516487 -0.293112 -0.222182
-0.635626 0.163176 -0.140815
-0.382186 0.006554 0.363076
-0.009560 0.372816 0.374877
0.329349 -0.714081 -0.041622
0.434025 -0.667119 -0.386339
0.402913 0.142172 0.226837
0.458360 -0.151745 -0.312595
0.029626 0.617082 0.198128
-0.696073 -0.071906 0.037193
-0.602975 0.264980 0.218139
0.006464 -0.130207 0.298355
0.406638 0.668297 -0.074247
0.476507 0.672272 -0.139260
0.550604 0.012693 -0.298720
-0.360132 0.599539 -0.107505
0.315590 -0.229326 0.248311
-0.352043 -0.261826 0.118727
0.027919 0.458511 -0.172791
-0.107586 -0.274856 -0.266200
0.481112 -0.709474 -0.154088
-0.658672 -0.416214 -0.224212
-0.577856 -0.279234 0.134460
0.200430 -0.049821 -0.267985
-0.336306 -0.066191 0.138490
-0.081408 0.626078 0.212152
-0.204409 0.100399 -0.199415
-0.234376 0.046602 -0.203979
-0.733746 -0.436753 -0.102564
0.626978 -0.321934 -0.303293
0.346401 0.224764 -0.243894
-0.312884 -0.029512 0.141260
-0.720925 -0.158245 -0.125831
-0.650529 -0.268158 -0.203158
-0.095998 -0.047871 0.172943
0.426111 -0.282880 0.019187
0.191914 0.154022 -0.236744
0.145631 0.673536 0.025221
0.117241 -0.302268 0.063877
-0.308874 -0.193309 -0.231088
-0.490278 0.128338 0.300176
0.130699 0.288242 0.137750
-0.477940 0.690807 0.228925
0.359835 -0.363766 0.223292
0.575127 0.528302 -0.224962
-0.720545 -0.589507 0.075181
0.714371 0.446255 0.056793
-0.665343 -0.556938 -0.244345
-0.045009 0.514150 0.275359
0.249451 -0.092771 -0.279964
0.380840 0.548736 0.147843
0.367685 0.447480 -0.213257
-0.394129 -0.266157 0.323947
0.405478 -0.335480 -0.333833
0.466519 0.223262 0.089724
0.232662 0.684546 -0.099012
-0.069219 0.314714 0.230334
0.348837 0.273188 0.307530
-0.521897 0.058655 0.273177
0.642277 -0.332075 -0.173881
-0.648721 0.611871 0.109506
-0.037292 -0.165420 -0.257983
-0.461005 0.423518 -0.122114
0.647626 -0.008545 -0.278745
0.283156 -0.490571 0.005911
-0.207879 -0.056787 -0.222358
-0.571664 -0.478634 0.113940
-0.599607 -0.433610 -0.233545
-0.033457 -0.131605 0.136990
-0.188894 -0.032434 -0.220912
-0.553319 -0.400451 0.227656
0.627058 -0.546664 -0.199498
-0.027140 0.670964 0.134178
-0.664560 0.129817 0.201580
0.562660 -0.047348 0.170598
-0.322393 0.089312 0.199357
-0.173313 0.706687 -0.044168
0.313194 -0.016469 0.071650
0.034590 -0.138828 0.293861
-0.180558 -0.252846 -0.254592
-0.526670 -0.647762 -0.066138
-0.662276 0.119069 -0.144319
-0.360552 -0.238614 0.324200
-0.277117 -0.299720 0.097051
0.667933 0.086105 -0.156595
0.651940 0.017296 0.037952
-0.348946 -0.115440 0.341163
-0.024677 0.624676 -0.142107
-0.153686 -0.037420 0.121893
0.344116 -0.686724 -0.244644
-0.672042 0.016981 0.189207
-0.218820 0.701885 0.013973
-0.350199 0.617252 0.241559
0.075442 0.508353 0.253577
-0.118063 0.698067 -0.011610
-0.266253 0.695161 0.086845
0.364173 0.090514 0.175378
0.245151 -0.119286 -0.283410
-0.115640 0.469864 0.192869
0.137180 0.498372 -0.179358
0.464037 -0.251257 -0.328020
0.269023 0.396771 0.346598
-0.641196 0.194469 -0.135532
-0.342301 -0.340045 0.234062
-0.373569 -0.085631 0.348403
-0.387552 -0.349593 -0.245303
-0.741480 -0.482952 -0.144430
-0.544916 -0.298163 -0.219683
-0.354194 -0.552140 0.234427
-0.565146 -0.527384 0.189462
0.424764 0.640017 0.118115
0.109760 -0.656605 -0.336753
0.238047 -0.384378 0.234149
-0.571414 0.388303 -0.114725
-0.570576 -0.340726 -0.223071
-0.033321 0.003371 -0.233374
-0.188917 -0.365760 -0.270403
-0.549326 0.224430 -0.141582
0.257528 -0.162738 0.264833
-0.669483 -0.286171 0.143902
-0.629164 -0.051194 -0.173384
-0.013416 0.023868 0.176751
0.187481 -0.379928 -0.315521
-0.365629 0.629515 0.245143
-0.280924 0.720735 -0.088021
-0.441493 -0.521852 0.291393
-0.193207 0.679631 0.159396
-0.108319 0.666363 0.209591
-0.569026 -0.494881 0.142911
-0.316259 -0.032284 0.305180
0.624547 -0.041116 0.032409
-0.657169 -0.316228 -0.209537
-0.540308 -0.315105 0.294579
0.182676 0.414250 0.359061
0.072477 -0.126970 0.291292
-0.392663 0.099026 -0.178106
-0.523961 -0.051668 0.306977
-0.495159 -0.015738 -0.183433
-0.561774 0.543110 0.254728
0.252895 0.588983 -0.179128
0.371845 -0.467682 -0.349620
-0.049195 -0.539699 -0.312198
0.000942 0.323111 0.366297
-0.319814 0.096497 -0.186806
-0.617517 0.733310 -0.001276
0.036153 -0.071035 -0.252362
0.194562 -0.602460 -0.349373
-0.464761 0.440990 0.228479
0.161615 0.491120 0.331402
-0.118249 0.475157 -0.153615
-0.631951 0.697212 0.207091
0.489842 0.652941 -0.008264
0.479806 0.658258 -0.040956
-0.702183 -0.577214 0.104423
0.564498 0.009280 0.159601
0.276673 0.058030 -0.260684
0.293423 -0.309868 -0.317225
0.372476 -0.520547 0.008468
-0.458620 0.715054 0.045713
-0.041858 0.099785 0.129486
-0.196746 -0.664585 -0.119056
-0.537664 -0.164428 -0.200654
-0.210327 0.615415 -0.122267
0.307979 -0.679432 -0.277751
0.438723 0.475023 -0.217285
0.017063 -0.628936 -0.333020
-0.431638 -0.050081 -0.195792
0.663887 0.444830 0.100069
0.324964 0.288740 0.209039
0.615502 -0.186543 0.011849
0.028144 -0.544197 0.025865
-0.709258 -0.209854 -0.007013
-0.699766 -0.004672 -0.023778
0.445808 -0.467317 0.053899
0.112979 0.189900 -0.222396
-0.567693 -0.499737 0.156008
-0.430653 0.708636 0.076865
0.220350 0.436448 -0.198058
-0.427833 -0.208480 -0.219746
-0.617743 0.105207 0.196102
-0.101475 0.337726 0.200212
0.074268 -0.215307 -0.278139
-0.555079 0.141697 -0.153209
0.175085 0.210290 -0.226466
-0.332897 -0.071903 0.187693
-0.234611 -0.075760 0.125448
-0.168400 -0.015690 0.126801
0.295036 0.044262 -0.264826
0.062212 -0.534147 -0.324105
-0.597110 0.342854 0.229032
-0.733873 -0.347988 -0.144336
-0.534658 -0.208821 -0.207589
0.254831 0.236444 -0.231696
-0.653508 0.539670 0.103609
0.573790 -0.481686 -0.374777
0.660862 0.056488 -0.200659
-0.282822 -0.083102 -0.217701
0.659190 -0.241799 -0.001348
-0.357134 0.017397 0.361823
-0.245316 0.686670 0.136471
-0.011390 0.518122 0.229382
-0.173696 0.173339 0.155474
-0.219379 0.322108 0.182785
-0.293719 0.200438 0.173214
0.464780 0.315032 0.312091
-0.083217 -0.659784 -0.212861
0.176494 -0.322949 0.250305
0.671939 -0.183844 -0.000038
-0.396037 -0.665177 -0.010331
-0.391192 -0.216283 -0.225092
0.621146 -0.657804 -0.196702
-0.534294 0.729205 -0.015620
0.638716 -0.593259 -0.051195
0.524080 0.153843 0.079988
0.400847 0.638487 0.141581
0.670080 0.545409 0.114296
-0.018047 -0.576812 -0.321268
-0.478687 0.524670 -0.105073
0.084396 -0.147626 -0.269247
-0.010273 -0.150292 -0.258824
0.345952 -0.533204 0.199720
-0.326581 0.019017 0.197465
0.350722 0.489788 0.241746
-0.523877 -0.035845 0.300403
0.534435 -0.047665 -0.305834
0.457059 -0.101383 0.042600
0.021816 0.030447 -0.235655
-0.435210 0.509400 -0.112309
-0.063417 0.035898 -0.225105
-0.352624 0.475954 0.220856
-0.336702 0.348276 -0.147491
-0.687045 0.120917 0.022312
-0.224852 -0.656196 -0.164206
0.212528 0.134047 -0.242066
0.597538 -0.685314 -0.376581
-0.428304 -0.540089 0.101251
-0.546260 -0.114479 0.155313
0.273023 0.442158 0.352880
-0.156587 -0.620316 -0.311895
-0.111766 0.233870 0.157385
-0.651048 0.728715 0.036906
-0.305714 0.073652 0.155759
0.111416 -0.432292 0.032965
0.193594 -0.201566 0.266374
0.348584 0.425278 0.341739
-0.713706 -0.476813 0.079229
-0.684313 0.032727 0.085068
0.251111 -0.705399 -0.062569
0.586180 0.656790 -0.086256
0.625119 -0.363516 -0.299368
-0.420797 0.279965 0.199545
-0.182045 0.537325 -0.137094
-0.424146 0.716187 0.019551
0.094162 0.689556 -0.062147
0.177987 0.691032 -0.116641
0.032747 -0.660044 0.008137
-0.729145 -0.341391 -0.108813
-0.633769 -0.626705 -0.160286
0.395450 -0.239236 0.029172
-0.648734 0.475906 0.171799
0.610596 -0.537989 -0.337720
0.615720 -0.514910 -0.306530
0.210203 0.289282 0.265346
-0.524697 -0.643939 -0.094464
0.221946 0.296104 0.210493
-0.231586 -0.119745 0.118571
-0.440724 0.015588 -0.185003
0.662397 0.605479 0.124093
0.340677 0.621079 0.163175
