0.114394 0.713172 0.101364
-0.076576 0.726213 -0.174455
0.064979 0.596102 -0.278620
0.099144 0.214946 0.098318
0.831618 -0.084209 0.172945
0.626643 -0.051748 0.157674
0.173973 0.034183 0.324485
-0.713287 0.372365 -0.002983
0.351529 0.354552 0.311238
-0.071384 -0.734849 -0.180554
0.587049 -0.107427 0.352846
0.339770 -0.583164 0.151843
0.405517 0.366626 -0.235658
0.019849 0.431222 0.206447
-0.363406 0.546224 -0.264354
0.365031 -0.451033 0.171299
-0.726630 -0.111636 -0.277935
-0.066889 0.531687 0.266944
-0.824506 0.256677 -0.314778
0.238347 -0.217127 0.143283
-0.327528 0.581816 -0.146921
-0.144852 0.388598 -0.276826
0.237495 0.802365 -0.282983
-0.376718 0.054634 0.077250
-0.516459 0.473826 -0.120335
0.723770 -0.150002 0.172585
-0.467420 0.295313 0.051261
0.014945 -0.533970 0.152964
0.358057 0.111924 -0.218421
-0.205987 -0.565764 -0.203885
-0.011710 -0.333106 0.134784
-0.414149 0.522147 -0.217215
0.698328 -0.282522 -0.162114
0.456346 0.035127 0.138448
0.447455 0.031479 0.138108
-0.025071 -0.514290 -0.195108
-0.569344 0.453469 -0.032745
0.005157 0.696105 -0.291002
-0.108482 0.658810 -0.296113
-0.720549 0.112030 -0.295620
0.032511 0.378784 0.080276
-0.076926 0.323056 0.076959
-0.067395 0.678554 -0.294773
-0.894176 0.177387 -0.313340
-0.348974 0.419837 -0.293964
0.525971 -0.321265 -0.171310
-0.833500 0.087385 -0.301707
-0.094732 -0.654696 0.353829
0.640172 -0.132857 -0.178401
0.507218 0.347424 -0.226824
-0.328567 0.490332 0.045399
-0.027430 -0.752307 0.167619
0.209953 0.388275 0.243585
0.859788 -0.292339 0.026647
0.166194 0.807972 0.055073
0.931102 -0.258153 -0.036784
-0.245947 0.273043 0.193058
-0.061934 0.199979 -0.255611
-0.561475 0.061154 -0.280114
0.208353 -0.337930 0.150923
-0.590113 0.413508 -0.257907
0.136951 0.326683 0.091971
-0.330116 0.453704 0.120115
0.118439 0.854927 0.047852
-0.118189 -0.325832 -0.217039
0.146444 -0.325191 -0.198153
-0.084538 0.288605 0.079205
0.752942 -0.350250 0.067333
-0.470839 -0.103285 0.155117
0.777589 -0.354298 -0.083385
0.197754 -0.045084 -0.217173
-0.159642 0.188963 0.081903
-0.389870 0.539960 -0.188670
-0.114764 -0.689777 0.164769
0.344733 -0.385079 -0.179111
-0.500755 -0.244935 0.093138
-0.518249 -0.223025 0.284788
-0.431072 -0.080303 0.151564
-0.506227 -0.115518 0.225006
-0.908872 0.220864 -0.297880
0.092792 -0.130413 -0.217772
0.041837 0.178672 -0.246458
-0.158582 0.141859 -0.257819
0.781846 -0.012797 0.165625
0.039003 0.684246 0.262163
0.118264 -0.725947 0.051681
0.881080 -0.287655 -0.037135
-0.648186 0.101947 -0.289624
-0.778535 0.298527 -0.290528
0.731541 0.046680 -0.186407
0.143464 0.687313 0.269390
-0.199613 -0.135824 0.105354
-0.414491 -0.526429 0.121620
0.192948 0.529801 0.179160
-0.441958 0.103312 -0.274976
0.450711 -0.483376 0.180051
0.348859 -0.378667 -0.179335
0.046559 -0.783316 -0.071252
-0.098262 -0.670781 0.240098
0.483980 0.145780 0.131462
-0.283149 0.240210 0.104363
-0.520072 -0.222233 0.089420
-0.066845 -0.064475 -0.234538
0.699218 -0.336487 -0.157679
0.142675 -0.068234 -0.219239
0.747381 -0.256504 -0.160711
-0.038177 0.264720 0.084458
0.659047 -0.422630 -0.071381
-0.215711 0.324787 -0.276727
-0.408648 -0.625866 0.130094
-0.691799 0.273826 0.036944
0.082004 -0.386133 -0.197827
-0.452668 0.143315 -0.278983
-0.524237 0.005932 -0.272975
-0.382483 0.154671 -0.274881
-0.477718 0.098941 -0.277181
0.282037 -0.292613 -0.191088
-0.287542 -0.500466 0.334770
-0.197727 0.424289 0.266281
-0.118801 0.587742 0.197998
0.018210 -0.177050 -0.219331
-0.075450 -0.743270 0.163451
0.378864 0.137068 -0.218969
0.755524 -0.056410 0.167275
-0.590954 0.119922 -0.286985
0.070359 -0.540748 -0.186135
0.350940 0.529816 0.090829
0.414725 0.392358 0.106530
0.331784 -0.155837 -0.198609
-0.643665 0.258329 -0.301970
0.105173 0.363010 0.086754
-0.461926 0.495696 -0.203533
0.099310 0.765492 0.053728
0.055449 -0.104863 -0.222514
-0.586909 -0.091171 -0.269594
-0.585499 -0.318839 -0.251049
-0.405383 -0.074950 0.291865
-0.493889 0.488685 -0.107616
-0.060252 0.076612 0.204320
-0.411154 -0.254079 0.305963
-0.348435 -0.117205 -0.250418
0.478089 -0.208773 0.365932
0.499388 0.217857 0.126725
-0.477898 0.495900 -0.125498
0.804483 -0.094920 0.173898
0.587580 -0.107651 0.346462
-0.373611 -0.392511 -0.229917
-0.092056 -0.065938 0.155486
0.571045 0.019763 0.147902
-0.092906 0.640557 -0.293520
0.173486 -0.061911 0.332235
0.403433 -0.117522 0.353196
0.046817 -0.666648 -0.177620
-0.109324 -0.664916 0.340619
-0.701463 0.241963 0.038834
-0.747561 -0.027897 0.057397
-0.275547 0.080314 0.082410
-0.118689 -0.392541 0.131943
-0.030179 -0.534513 -0.193835
0.314180 -0.585505 0.178554
0.539902 0.424382 -0.219894
0.177197 0.346121 0.286955
-0.834317 0.271324 -0.244663
0.414260 0.004871 -0.205726
0.058419 -0.203856 0.129332
0.279625 0.840390 0.060565
0.213528 0.874372 0.053082
0.537447 -0.074981 0.359341
-0.118397 0.580616 -0.290488
-0.685767 0.068441 0.054014
-0.151688 -0.712596 0.156046
-0.212486 -0.003490 -0.249902
0.189374 0.854289 -0.290634
0.599941 -0.087036 0.269346
-0.327366 -0.539800 0.140484
-0.608457 0.171582 0.051191
0.179910 0.234958 0.102476
0.009060 0.561810 -0.279843
0.168085 0.000638 -0.223001
-0.523937 -0.126074 0.223980
0.007317 -0.106756 0.148967
0.430438 -0.164600 -0.190839
-0.443759 0.527999 -0.028112
0.303449 0.527352 0.087630
-0.598127 0.394146 -0.309714
-0.323553 -0.093457 -0.250562
0.328392 -0.278142 -0.188943
0.763703 -0.309879 0.188394
0.053000 -0.310318 0.137568
0.870221 -0.267482 0.178582
0.495679 0.164118 0.130813
-0.098432 -0.598433 -0.193541
0.241334 0.312100 -0.242991
0.607421 -0.020157 -0.189875
0.042716 0.451047 0.258079
-0.593930 -0.332358 -0.250557
0.432284 -0.005296 0.148054
-0.154563 0.700852 -0.007466
0.681297 -0.409443 -0.070703
-0.567377 -0.141232 0.079473
0.075417 -0.747571 0.080986
-0.044739 0.663627 0.051672
-0.145665 0.302854 0.073676
-0.145985 -0.591526 -0.197504
-0.163282 0.665645 -0.251639
0.221586 0.790966 -0.283198
-0.483037 -0.328328 -0.242948
-0.519529 -0.184110 0.292539
0.262466 0.625781 -0.266891
-0.685819 0.217025 0.041973
0.571289 0.249337 0.129321
-0.498108 -0.115520 0.288515
0.035695 0.429845 0.119496
0.464311 -0.153057 0.360432
0.168371 0.526410 0.269151
0.123600 -0.435491 -0.190852
0.279613 -0.622551 0.119688
0.672109 -0.121971 -0.176997
0.085965 -0.147211 0.126714
0.174421 -0.434763 0.156340
-0.343465 0.454445 -0.296374
0.402603 -0.560834 0.032702
0.393078 -0.551492 0.154103
-0.535745 -0.133536 0.219856
0.186354 0.162650 -0.234818
0.018468 -0.087745 0.323234
-0.852534 0.292215 0.012074
-0.705063 -0.031971 0.060768
-0.064188 0.613106 0.142800
0.035879 0.696128 -0.288805
-0.250465 0.421308 0.262748
0.109506 -0.620614 -0.176863
0.442069 -0.559549 -0.145581
0.621897 0.105576 -0.199025
0.336815 0.769014 -0.256869
-0.082618 0.608255 -0.290167
-0.315714 -0.522503 0.334539
-0.596897 0.292483 0.042224
0.453258 0.208986 -0.219471
0.286207 -0.422977 -0.180229
0.406028 -0.192324 0.359442
0.016390 0.783310 -0.155393
0.159131 0.889901 0.027541
-0.747702 -0.087171 0.062188
-0.106742 0.582543 0.098125
0.255344 0.685206 0.071399
-0.290406 0.620349 -0.011553
0.597966 0.266977 0.129801
0.070353 0.762563 0.051893
-0.236469 -0.566006 0.343735
0.404414 0.338919 0.316289
-0.342600 -0.698992 0.140745
-0.361460 -0.103478 0.297319
0.285364 -0.168179 0.325207
-0.416882 -0.069421 0.290594
0.785012 -0.046836 -0.175004
-0.632801 -0.182085 0.078101
-0.159186 0.386843 -0.277709
-0.288112 -0.007955 0.088662
0.053358 0.683667 0.153656
0.356906 -0.355618 0.162987
-0.506810 0.470669 -0.192111
0.184096 -0.577802 0.168620
-0.412585 0.109356 0.070250
-0.272409 -0.828782 0.156283
-0.232558 -0.863648 -0.181654
-0.359607 -0.655584 0.136011
0.005056 0.038445 0.312051
0.138696 0.840665 -0.274524
0.273627 0.846663 0.059627
-0.488830 -0.009407 0.074415
-0.321764 -0.145377 0.106627
-0.126823 0.221805 -0.262023
0.302096 -0.206425 -0.196635
-0.062519 -0.141135 0.115595
0.018569 -0.489119 -0.194024
0.446734 0.294004 0.267330
-0.142034 0.453732 -0.281901
-0.215917 0.375217 0.268954
0.274434 -0.421470 -0.181193
-0.004901 0.545631 -0.279532
0.040743 -0.588119 0.159197
0.086105 0.785965 -0.292489
0.164118 0.059845 0.321701
-0.799225 0.277621 -0.314665
0.927429 -0.238070 -0.028307
0.128062 -0.104618 -0.217338
0.732712 -0.140862 -0.171130
-0.179726 -0.609445 0.351315
-0.228900 -0.175636 -0.237130
-0.942240 0.235522 0.022040
0.347569 0.611876 0.083940
-0.494489 0.432965 -0.305442
0.402699 -0.314379 0.162924
0.440907 -0.332665 -0.176474
-0.203429 -0.600636 0.348905
-0.479099 0.263622 0.052992
0.215557 0.799788 0.059269
-0.178668 -0.178598 0.110318
-0.348307 0.500345 0.043175
-0.231129 0.235456 0.073020
0.426586 0.465423 0.101459
0.710728 -0.305118 -0.159396
-0.716232 0.351047 -0.161994
-0.275176 -0.885381 -0.134229
-0.404736 0.017060 0.078289
-0.094186 0.497074 0.267794
-0.181049 -0.915255 -0.054188
0.071746 -0.435293 -0.194579
0.439363 0.055053 0.135619
-0.462523 -0.568112 0.121560
-0.517544 0.092304 0.064120
-0.204832 -0.755647 0.155194
0.545501 -0.489465 -0.071112
-0.063994 -0.003017 -0.239313
-0.779796 0.315185 -0.149237
-0.103389 -0.146871 -0.230478
0.078173 0.291454 -0.252995
-0.578977 0.384228 0.036074
0.049879 0.443551 0.162958
0.352515 -0.288262 -0.186397
-0.284525 -0.810585 -0.189672
-0.148233 -0.063957 0.103209
0.547212 0.170776 0.133962
-0.322381 0.577500 -0.206578
-0.083495 0.733808 -0.079707
-0.394922 0.177989 -0.277660
-0.336370 0.328926 -0.285697
-0.520273 0.167829 0.057806
0.102254 -0.121917 0.302309
0.138946 -0.264337 0.139994
-0.800460 0.184412 0.036411
0.491687 0.202520 0.127417
0.270878 0.263196 0.312867
-0.587779 -0.219224 0.084331
-0.169657 0.294974 -0.271016
-0.220119 -0.581916 0.346194
-0.454856 -0.279675 0.304909
0.591230 -0.108602 0.304248
-0.369230 -0.555698 0.127230
-0.187491 -0.521654 -0.206135
-0.336612 -0.508487 0.331908
0.449248 0.291516 0.223272
-0.200298 0.015017 -0.250529
0.029479 0.510653 -0.274238
0.215883 0.154317 0.111584
0.186353 0.416568 -0.255389
0.207008 -0.686310 -0.050828
-0.552059 0.452038 -0.127023
0.202858 -0.494946 0.163250
0.137564 0.768549 0.056218
0.142369 0.854314 -0.181269
-0.202316 -0.562970 -0.203849
-0.073658 0.012162 0.171686
-0.323028 0.575887 0.038864
0.521325 -0.120064 0.361839
-0.203444 0.304290 0.243539
0.600468 -0.087871 0.261326
0.055471 0.443209 -0.266914
0.207801 0.072707 0.117617
-0.503785 0.333286 -0.298032
-0.215552 -0.048873 -0.246444
-0.183693 -0.815886 0.161587
-0.235863 0.656314 0.019662
-0.205897 0.478759 0.261283
-0.770893 0.322838 -0.129663
-0.209288 -0.036786 0.096638
-0.280985 -0.655267 0.141612
-0.237366 -0.270847 0.113591
-0.220398 0.375913 -0.281204
-0.439303 -0.080424 0.189942
0.724247 -0.374566 0.007106
0.260892 0.724937 -0.275036
0.715455 0.066806 0.154425
-0.147505 0.070459 0.092371
0.568866 -0.025383 0.151403
0.515539 -0.242926 -0.178403
0.058456 0.568153 -0.276822
-0.026963 0.418612 0.278961
0.220622 0.141525 -0.230654
-0.032137 -0.647980 -0.184783
-0.087947 -0.655105 0.318059
-0.266287 -0.899011 -0.169028
-0.225888 0.269695 -0.272992
0.022418 -0.137682 -0.222219
0.645967 -0.171418 -0.174862
0.053172 0.393229 -0.263029
-0.079999 0.739262 -0.052132
-0.551091 0.459270 -0.072925
0.164646 0.367727 0.296796
-0.530296 -0.089424 -0.265684
0.484468 -0.356509 0.172189
0.559531 -0.376832 0.179207
-0.663790 0.144996 -0.294229
-0.228908 -0.922048 0.119502
0.102205 -0.436449 0.151308
-0.131910 -0.292848 0.122920
-0.490739 0.485095 -0.151827
0.345455 -0.606147 -0.161150
-0.649130 -0.064826 -0.276181
-0.049745 0.082971 0.107930
0.856939 -0.284527 0.103694
0.097195 -0.748423 -0.030064
-0.159895 0.692899 -0.046543
0.188149 0.531430 0.215334
-0.403562 0.014063 0.078616
-0.301801 0.117475 0.077520
-0.428773 0.536197 -0.033199
-0.552311 -0.347747 -0.246332
0.282782 0.264885 -0.236200
0.177574 -0.334312 -0.195186
-0.249209 0.614832 -0.253339
-0.186197 0.320645 -0.274279
0.574578 0.042337 0.146326
-0.151348 -0.567368 -0.199845
0.141697 0.142410 0.107239
-0.097258 -0.730036 -0.182796
-0.083088 0.619397 0.052511
-0.056485 -0.641157 0.280870
0.143027 -0.137473 0.223162
0.188728 0.117134 0.112653
0.252454 0.083322 0.119953
0.580604 0.070497 -0.199138
-0.653350 0.307120 -0.306615
0.126680 -0.537162 -0.182395
0.376458 -0.466486 0.173368
-0.279481 -0.775267 -0.192172
-0.475037 0.245787 0.054728
-0.257903 0.565243 0.044387
0.114770 -0.161744 -0.213661
-0.265319 -0.329100 0.322478
-0.572395 0.458274 0.020857
0.516278 0.042202 -0.201449
0.456407 -0.331526 0.168156
0.287583 -0.200602 -0.198146
0.275879 0.158577 -0.228081
-0.418382 0.031358 0.076154
-0.047007 0.544704 0.267312
-0.475364 0.171093 -0.282858
-0.325715 0.464607 0.187596
0.010784 -0.539758 -0.190479
-0.115711 0.342129 0.131254
-0.425002 0.156969 0.065504
0.213230 -0.438190 0.159395
-0.362106 0.079182 -0.267307
-0.423509 0.212889 0.061081
0.001952 0.619537 0.264753
-0.092841 -0.364226 -0.212115
-0.098932 0.588245 0.107073
0.160211 0.725087 0.267528
0.232055 -0.441848 -0.182575
-0.039444 0.126318 0.288425
-0.501875 0.475521 -0.176316
0.600432 -0.060108 0.338405
-0.594629 0.377721 0.035481
0.036670 0.348571 0.083021
-0.471786 -0.102415 0.166705
-0.300923 0.303337 -0.281088
0.097935 0.129173 -0.238434
-0.308620 0.089269 0.079317
0.567020 -0.369099 0.179116
0.771662 -0.126211 -0.169529
0.256817 0.281426 0.310384
-0.202471 0.379777 -0.280234
-0.869808 0.124390 -0.259966
0.273919 0.589052 0.191117
0.526489 0.283397 0.123355
0.601206 0.234393 -0.210941
-0.075751 0.142615 -0.251953
0.183126 0.141900 0.110246
-0.282682 0.441630 0.258796
0.385293 0.362911 0.312977
0.190530 -0.541545 -0.177470
-0.253457 0.613676 -0.242419
0.204504 0.544737 0.245176
-0.413965 -0.112415 0.294286
-0.043016 0.769379 0.015562
-0.347359 -0.237713 -0.240579
-0.335893 0.402835 -0.291651
-0.028255 -0.240571 0.126103
-0.762047 0.319765 -0.196914
0.117502 0.315787 0.091462
0.123857 0.867965 0.018097
-0.017076 -0.075448 0.319694
-0.188265 -0.090444 0.102490
-0.197792 0.127070 -0.259427
-0.728768 0.338186 -0.206479
0.754324 -0.365992 -0.067092
-0.119731 -0.286326 -0.220350
-0.274941 0.436447 0.259770
0.027367 -0.447608 0.146856
0.185393 -0.226787 0.140276
-0.198718 -0.733969 0.207390
-0.002812 -0.508915 -0.193950
0.450825 0.291092 0.167093
-0.621983 0.390429 -0.292904
0.695795 -0.158870 0.171301
-0.497249 0.492750 -0.058543
0.165776 -0.711938 -0.061755
0.032403 -0.504804 0.151850
0.265471 0.422752 0.258056
0.608879 -0.439994 0.027518
0.820213 -0.296954 -0.152222
-0.239304 0.577736 0.044706
0.156566 -0.513085 0.161407
0.466206 -0.321096 0.168013
-0.125961 0.589808 0.249011
-0.064529 0.598323 -0.288068
0.223877 0.546097 0.163580
-0.074557 -0.836659 0.074763
-0.106098 0.195994 -0.258449
0.516255 0.169156 -0.211736
0.240808 -0.104262 -0.209298
0.882944 -0.181255 -0.157106
0.547793 -0.084484 0.360851
-0.302563 0.137759 0.075823
-0.028132 0.207706 0.089796
-0.259974 0.502930 0.049287
0.478638 -0.379067 -0.170015
0.587438 0.205251 -0.209566
0.418827 0.271025 0.235105
-0.563846 0.384380 0.037144
-0.003419 0.051780 0.310364
0.489743 -0.444210 0.179671
-0.775816 -0.012524 -0.289485
-0.274256 0.608688 -0.183467
0.389658 -0.555098 0.141176
-0.838850 0.089133 -0.302231
-0.187908 -0.390748 -0.216770
0.261235 -0.509513 -0.175005
-0.274059 0.263517 0.250137
0.918943 -0.219449 -0.135607
0.147308 -0.284262 -0.201407
-0.528555 0.007581 0.070196
0.237970 -0.068169 -0.212425
-0.549442 0.467940 -0.010417
-0.827468 0.175357 -0.308402
0.495846 0.254923 -0.220145
-0.306970 -0.575051 0.160230
0.212477 0.905426 0.050491
0.080135 -0.108238 0.329307
0.224867 0.652032 0.278074
0.504164 0.034830 -0.201719
0.318380 -0.185804 0.180504
-0.692607 0.350277 -0.281218
-0.268623 0.483821 -0.293398
0.597948 -0.120130 0.199538
-0.761924 0.059677 -0.294339
-0.091916 0.244482 -0.261362
0.301187 -0.521637 -0.171164
0.512446 0.135224 -0.209259
-0.310887 -0.095806 -0.249465
-0.469332 -0.100828 0.167860
-0.817411 0.095104 0.042433
0.238316 0.826486 -0.284879
0.703860 -0.385683 0.014331
0.252265 0.351380 0.304391
-0.107537 -0.810354 -0.177025
-0.564315 -0.040334 0.071518
0.612289 0.133414 -0.201968
0.390952 -0.200478 0.248270
0.133417 0.233465 -0.244343
0.003402 -0.790165 0.079497
-0.566193 -0.051999 0.072329
0.348730 -0.303383 -0.185443
0.512425 -0.462383 0.182766
-0.921789 0.235389 -0.118175
-0.597687 0.417653 -0.188032
-0.373348 0.538869 -0.276532
0.391120 -0.220419 -0.189131
-0.832650 0.287003 -0.125333
0.024827 -0.105838 -0.224627
0.252549 0.569406 0.215746
0.014353 0.259889 -0.255005
-0.821368 0.165212 0.036470
-0.301675 0.019816 -0.258173
0.164625 0.869390 0.049985
-0.350770 0.257720 -0.280959
-0.648589 0.101663 0.053983
0.331334 -0.358616 -0.182213
0.314445 -0.293878 -0.188667
0.047196 0.094696 -0.239272
0.403449 0.348745 0.315424
0.068717 -0.409587 -0.196878
-0.329040 0.586081 -0.105064
0.328711 0.595110 -0.259665
-0.345090 -0.655155 -0.206598
-0.252750 0.331186 -0.279896
-0.164998 0.460202 -0.284068
-0.518976 -0.314244 -0.246661
0.175357 0.217956 -0.240086
0.295834 0.782604 -0.277207
0.091924 0.524274 0.278910
-0.050255 0.388780 0.197059
-0.403018 -0.071567 0.088355
0.198135 0.051218 -0.224948
-0.264069 -0.290967 0.319478
-0.267510 0.488461 0.102960
0.127927 0.546765 -0.270118
-0.534218 0.153345 -0.285632
0.205601 -0.166670 -0.206762
0.406719 -0.035970 0.346825
0.703252 -0.399510 -0.095032
-0.736605 0.255225 0.035244
0.301281 0.424966 0.104802
0.178067 -0.605511 0.170433
0.287603 -0.523341 0.171615
-0.427392 -0.069826 -0.259907
-0.580295 0.441291 -0.079262
-0.771639 0.289133 0.029990
0.530147 0.146701 0.134691
0.542951 0.148352 -0.208140
0.216057 0.547533 -0.263873
-0.168393 -0.276196 -0.224653
0.775502 -0.050039 -0.175425
0.109339 0.712138 0.117143
0.327351 -0.132465 0.348962
0.527554 -0.473818 0.141758
-0.349900 -0.481087 0.328738
0.556888 0.097519 -0.203024
0.147039 -0.704434 -0.167387
0.312673 -0.454273 -0.175799
-0.569637 0.421986 0.033683
-0.296378 0.296784 -0.280231
-0.003038 -0.627413 -0.184367
-0.234893 0.188648 0.076543
-0.841012 0.263479 0.027104
-0.247026 -0.024197 -0.250696
-0.044828 0.105103 0.115737
0.044506 -0.495538 -0.191648
0.628560 0.198622 -0.206086
0.396267 0.355317 0.314378
-0.579218 -0.309955 0.092294
-0.078458 -0.004999 0.176340
0.026261 0.531114 0.273656
0.476309 0.198374 0.126652
-0.196790 -0.197287 0.110535
0.255876 -0.529475 -0.173772
-0.189287 -0.348825 0.123349
-0.178780 -0.223759 -0.229645
0.071453 0.012764 0.318883
-0.163383 0.547027 0.080588
0.167869 0.205342 0.104014
-0.505204 0.482277 -0.105533
0.066408 0.545407 -0.274410
-0.722875 0.018473 0.055407
-0.567672 0.165428 -0.289005
0.240018 0.402115 0.093236
0.083338 0.203832 0.098087
-0.006789 -0.098633 0.220299
0.072959 0.689604 0.108138
0.159665 -0.232302 0.138882
-0.820637 0.059124 0.045117
-0.109330 -0.884239 -0.145297
-0.190446 0.676183 -0.036187
0.320470 -0.260210 -0.190963
0.718530 -0.067602 -0.178080
-0.166600 -0.880625 0.157900
0.535836 0.101221 -0.204831
0.363054 -0.503859 0.175437
-0.640482 0.150929 -0.293041
-0.424094 -0.102949 0.292794
0.794309 -0.095418 0.173211
-0.760028 0.213613 0.036939
0.181398 0.370621 0.236791
0.869799 -0.279106 0.086219
0.051198 -0.078373 -0.224965
-0.406421 -0.125834 0.295913
0.355544 -0.600389 -0.063441
-0.386679 0.354747 0.052224
0.722895 -0.079211 0.166787
0.890679 -0.274479 0.023947
-0.060710 -0.847407 -0.078717
-0.481485 0.509712 0.032885
0.102643 0.710857 0.138755
-0.182839 -0.494248 0.341759
-0.337992 0.237577 -0.278413
0.111181 0.835839 -0.182146
-0.534587 0.042022 -0.276640
-0.381075 -0.051124 0.149415
0.920312 -0.230772 0.090153
0.084283 -0.637311 -0.177316
0.720121 0.002546 -0.183649
0.208862 0.070258 -0.225722
0.106224 0.629416 0.271415
0.172729 -0.670782 -0.168274
-0.691182 0.266525 -0.306034
0.236318 0.245709 0.299868
-0.526336 0.382678 -0.303647
0.320878 0.796490 -0.270584
-0.081284 0.582159 -0.287957
0.288810 -0.166296 0.348945
0.479919 -0.222763 0.262477
-0.434703 0.503003 -0.274369
-0.722098 0.033246 -0.289348
-0.698810 0.022769 -0.286833
0.632926 -0.143111 -0.178089
0.203251 0.445627 0.087080
0.164718 -0.687811 0.139204
0.525527 -0.009142 -0.196628
-0.082603 -0.368440 0.132573
0.289327 0.192382 -0.229858
0.439269 0.544659 -0.247666
-0.063019 -0.578562 -0.192617
-0.422743 0.546938 0.025174
-0.103823 -0.632951 -0.191131
-0.919986 0.209735 -0.274015
-0.613498 0.232634 0.045884
-0.129151 -0.692220 0.213724
0.033667 -0.784569 -0.019787
0.366756 0.268271 0.319317
0.323127 0.310904 0.312741
0.553034 -0.483313 -0.057174
-0.119193 -0.359821 0.129256
-0.258575 0.460629 -0.290800
-0.020207 0.300426 0.082851
0.300146 -0.474089 -0.175091
0.006828 -0.712247 -0.176788
-0.153147 -0.899838 -0.173039
-0.379927 -0.256231 0.308372
-0.602821 0.054175 -0.282508
-0.419871 0.295349 0.054661
-0.068881 0.604834 0.260875
0.180602 0.463799 0.083987
-0.517717 0.278222 0.049046
0.092739 0.850302 0.023477
0.132700 0.116043 -0.234882
0.246558 0.110103 0.117361
-0.143441 -0.321668 -0.219184
0.359442 0.559259 -0.254561
0.228197 -0.683613 -0.130248
-0.718351 0.116399 0.047797
0.737979 -0.381026 -0.111002
0.783932 -0.308583 -0.153876
-0.201134 0.650968 0.041505
-0.065220 0.091335 0.298881
-0.335815 -0.371553 -0.228910
0.007874 0.282425 -0.257294
-0.520167 -0.134422 0.138167
-0.349925 -0.691008 -0.204040
0.146869 -0.303700 -0.199864
-0.355434 -0.482882 -0.221295
-0.204745 0.572237 0.047625
-0.118435 -0.878943 -0.058754
-0.616051 -0.258798 0.085514
-0.317039 -0.815277 -0.118369
-0.871568 0.144015 -0.309019
0.049815 -0.778650 -0.048942
0.657570 -0.331744 0.182570
0.468066 -0.504863 0.174144
0.646477 -0.095082 -0.181010
0.398513 0.265894 0.290575
-0.015664 0.227271 -0.254511
0.402189 -0.365961 -0.176548
0.251157 0.564584 0.183247
-0.818952 0.212647 -0.310813
-0.406259 0.169123 0.065861
-0.262022 0.632898 -0.045386
-0.657015 -0.106294 0.070228
-0.001760 -0.103464 0.163852
0.339930 -0.413568 -0.177146
0.078094 0.455941 0.128645
-0.040370 -0.095390 0.132078
0.474451 -0.341738 -0.173339
-0.352845 0.573429 -0.093959
-0.214293 -0.806936 0.158672
0.552530 -0.473383 0.025863
-0.230184 -0.737641 -0.191693
-0.338407 0.362017 -0.288524
0.577059 -0.216589 -0.176134
-0.501668 0.110778 0.063759
0.356049 0.222902 0.144545
0.397677 0.092361 0.129613
-0.138372 -0.303784 -0.220270
-0.843799 0.183312 -0.310215
0.837460 -0.224617 0.186765
0.275966 -0.636530 -0.163661
-0.030758 -0.808758 0.091877
-0.167319 -0.222094 -0.228960
-0.723347 0.193820 -0.302446
-0.203698 -0.473467 0.338583
0.661865 -0.407103 0.041213
0.226833 0.918783 -0.061689
-0.890459 0.240600 -0.225678
-0.432673 -0.619382 0.127849
0.188651 -0.001163 -0.221383
-0.183427 0.661726 -0.187136
-0.209912 -0.639573 -0.198187
0.420131 0.523185 0.096318
-0.437551 0.177889 0.062911
-0.306553 0.614402 0.017372
-0.246492 0.635248 -0.100566
0.175467 0.364748 0.217463
-0.404890 -0.404598 -0.231176
0.254724 -0.608094 -0.167485
-0.583435 0.327811 -0.303288
-0.510614 0.041668 -0.274896
-0.194669 0.091502 0.087291
0.321416 -0.574486 0.178179
-0.082197 0.018895 0.282903
-0.548985 -0.412970 0.102804
0.393016 0.040716 0.133463
0.515976 0.272177 -0.220102
-0.258376 0.611321 -0.238020
-0.498635 0.222611 0.054917
0.271985 0.869600 -0.032453
0.227345 0.009071 0.330339
-0.345399 -0.374604 0.320433
0.367734 0.397719 -0.240881
-0.317716 -0.217062 0.309651
-0.032731 -0.025209 0.314504
-0.091696 0.595875 0.134428
-0.275699 -0.648227 -0.202194
0.033020 0.666315 0.110012
0.371611 -0.271487 -0.186390
-0.402929 -0.083861 -0.257020
0.462626 0.357071 -0.230797
-0.259482 0.253505 0.099143
-0.598123 0.406032 -0.280304
-0.059934 0.736393 -0.171375
-0.008868 0.223647 -0.253731
0.404021 -0.370562 0.167570
0.123734 -0.346389 -0.198061
0.843545 -0.247202 0.189031
-0.730191 0.365183 0.019529
0.680860 -0.276034 -0.163890
-0.017816 0.269614 0.085519
-0.210283 0.273833 0.071403
-0.104299 -0.067246 0.284668
0.220801 0.160192 -0.232154
-0.395859 -0.307677 -0.238382
-0.224624 -0.936447 -0.017898
-0.067078 -0.146340 -0.227923
-0.409076 0.507385 0.038256
0.387122 -0.418219 -0.173392
-0.090537 -0.870565 -0.124129
0.435232 0.074416 -0.209859
-0.104441 0.636655 -0.294029
0.420343 0.376062 0.108252
-0.198883 -0.856493 -0.179824
-0.496762 -0.170105 -0.256748
-0.080846 -0.012737 0.180861
0.205084 0.405889 0.090430
0.291488 0.635982 0.077973
0.694831 -0.327006 -0.158761
0.055851 0.811139 -0.118120
0.017147 0.038742 0.312893
0.189751 0.870123 -0.279470
-0.398923 -0.023342 -0.261636
0.067952 0.639538 -0.281926
0.034694 0.444307 0.241707
-0.068127 0.198371 0.087690
-0.724241 -0.116899 -0.277338
-0.310797 0.585326 -0.198424
0.262383 -0.290304 -0.192682
0.260625 0.001799 -0.216472
-0.490035 -0.199089 -0.253918
-0.063615 0.035668 0.307362
-0.240083 -0.773188 -0.189521
-0.780702 0.071643 0.046961
-0.145974 -0.566674 0.350265
-0.071260 -0.088672 0.110805
0.042750 0.657088 0.264631
0.241501 0.922033 -0.105438
-0.224091 -0.716929 0.206255
0.687563 -0.316217 0.183459
-0.430533 0.510104 -0.236655
-0.267230 0.399976 0.263276
-0.406564 -0.277187 -0.241618
-0.040621 -0.692696 0.161846
-0.139735 -0.616008 -0.195073
0.042102 -0.199655 -0.215790
0.662258 -0.150525 0.168225
0.385864 -0.270039 0.158127
-0.094765 -0.657188 0.333750
-0.125490 0.342209 0.178667
-0.213629 -0.267234 -0.228617
-0.344589 -0.512243 0.125474
-0.417488 0.209295 0.061803
-0.248538 0.639855 -0.053377
-0.357290 -0.490644 0.175728
0.256503 -0.154058 0.345641
0.582479 -0.217986 0.167981
0.334856 0.672722 0.078101
-0.689024 0.370940 -0.130577
0.223691 -0.580506 -0.171941
0.274111 -0.261169 -0.194203
-0.135173 0.336160 0.175855
-0.322440 -0.536733 0.335211
-0.636612 0.418295 0.003310
0.399709 0.250222 0.157613
0.090788 0.107732 -0.237208
-0.302120 0.311300 0.267963
-0.295773 0.606957 0.038297
0.147562 0.597048 0.276996
-0.155982 -0.881870 -0.174698
0.167220 -0.654764 -0.169966
-0.245566 -0.596497 0.345554
-0.646005 -0.234500 0.081402
0.205623 0.391989 0.294450
0.168428 -0.435322 0.155956
-0.554543 -0.409675 0.102139
0.285820 -0.389827 -0.182942
-0.059966 0.364357 0.074827
-0.183913 -0.362244 -0.218793
0.226753 -0.276958 -0.196313
0.079436 -0.061253 -0.224331
-0.106786 -0.438695 0.136534
0.493583 0.458077 -0.236765
-0.046034 0.444475 0.275501
-0.331582 0.598937 0.011484
0.005992 0.229793 -0.253165
-0.593580 0.271913 -0.299486
-0.226082 0.507553 0.059881
0.467492 -0.528455 -0.014676
0.214707 0.851389 0.055028
-0.266956 0.625543 -0.081514
-0.083203 0.016299 -0.242253
-0.182569 0.063730 0.090407
0.214404 -0.161166 0.141356
-0.026131 0.375533 0.076343
0.170438 0.138120 0.109644
0.144610 -0.425483 -0.190159
0.064699 0.445961 0.111661
0.431606 -0.560861 -0.106203
-0.071109 -0.079821 0.253326
-0.232799 0.484758 -0.290910
-0.264326 -0.707054 -0.196614
0.278811 -0.300910 -0.190647
-0.015965 -0.342781 -0.208351
-0.122085 -0.693300 0.171167
-0.049287 -0.633470 0.308868
0.132815 -0.600568 0.166794
-0.411251 -0.315936 0.310968
0.118575 0.233984 0.098166
0.152155 -0.256888 0.140336
0.223568 0.013277 -0.220054
-0.405962 -0.051311 0.266900
0.102654 0.470216 0.127119
-0.594120 -0.117326 0.075623
0.759531 -0.101317 0.171200
-0.276606 -0.630033 0.252304
-0.542701 0.346134 -0.301857
0.443719 -0.513598 0.181999
-0.430987 -0.086543 0.100489
0.230860 0.552368 -0.263205
0.188018 0.521130 -0.263740
0.674178 0.043579 0.153353
-0.482870 -0.152959 -0.257143
-0.081513 -0.702622 0.159724
0.007104 0.194162 -0.250199
0.275715 0.314493 -0.240724
-0.221281 0.029599 -0.253212
0.036484 -0.597084 0.159618
0.088890 0.697637 0.264648
-0.168261 0.471262 -0.285198
-0.380936 0.518195 -0.304220
-0.767172 0.306064 -0.283662
0.709483 -0.394415 -0.083451
-0.213875 -0.112549 0.102448
-0.233951 -0.800740 0.156763
-0.299147 0.348305 -0.284603
0.253746 -0.641453 0.089900
0.105551 0.479362 0.187525
0.837943 -0.263957 -0.153626
-0.774709 0.320943 -0.126809
0.260639 0.416627 0.231429
-0.371920 0.571157 -0.021197
0.437411 -0.401882 -0.171117
-0.465028 -0.092840 0.212140
0.440127 0.557851 -0.248673
-0.139523 0.555696 -0.289981
0.023613 -0.211613 -0.216145
0.316332 -0.601475 0.115235
-0.732187 -0.016980 0.057612
-0.253623 0.061358 -0.258099
0.406062 0.593084 0.089648
0.252758 0.217337 0.314747
0.207202 0.295101 0.295012
-0.086757 -0.346645 0.130510
0.165202 -0.339429 0.147957
0.442141 0.289578 0.274269
-0.448858 0.170511 -0.280914
-0.610945 0.372281 0.034754
-0.440008 0.015518 -0.267724
0.388728 -0.336200 -0.179922
-0.756373 0.217554 0.036881
0.427286 0.495528 0.099070
-0.337794 0.526781 -0.301828
-0.289919 -0.325100 0.320393
0.350868 0.132784 0.122988
0.492040 -0.519436 -0.058828
-0.051020 0.473889 -0.277020
-0.181000 0.542030 -0.291842
-0.490443 0.494785 -0.074564
-0.156651 -0.888558 0.045915
-0.184934 -0.928746 -0.145160
-0.043258 -0.091409 0.183842
-0.625183 0.006874 -0.280276
-0.124851 0.577400 0.259092
-0.579026 0.454349 0.020689
0.146714 0.758630 -0.285937
0.426825 0.069346 0.133564
0.236550 0.694652 0.069289
0.192832 0.425635 0.087954
-0.057991 0.269887 -0.260992
-0.444021 -0.078169 0.230814
-0.443516 0.512320 -0.156580
-0.386265 0.543165 -0.179883
-0.235227 0.608311 -0.301093
0.818882 -0.222549 0.185268
-0.457762 0.324793 0.049564
0.104201 0.588444 -0.275192
-0.410567 0.548912 -0.017020
-0.319507 0.578329 -0.213590
0.895647 -0.179386 -0.153119
-0.139866 0.578338 0.222368
-0.157262 0.378881 -0.276927
-0.133436 -0.055571 0.103588
0.369685 0.593060 0.087047
-0.330749 0.528660 -0.301476
0.514227 -0.028366 0.353903
-0.062795 0.146911 -0.251373
0.147201 0.833734 -0.291986
-0.488186 -0.519327 -0.227843
-0.121642 -0.321185 0.125951
-0.049283 -0.204221 -0.221960
-0.021539 -0.734732 0.166617
-0.913283 0.204683 0.026695
0.667006 -0.388691 0.166132
0.583385 -0.196905 -0.177276
0.759999 -0.350815 0.029004
0.178685 -0.034285 -0.219413
0.043531 -0.019091 -0.230316
0.143474 0.509748 0.252906
0.230499 -0.167226 -0.204935
0.004938 0.650194 0.113399
-0.569989 0.120736 -0.285550
-0.352607 -0.191009 0.305044
-0.084529 -0.060223 0.313633
0.587692 0.271463 0.128702
0.079282 -0.619737 0.164516
0.571613 0.108201 -0.202836
-0.299722 -0.173637 -0.242361
0.468981 0.380817 -0.232266
-0.158632 -0.180787 0.111929
0.137750 0.867143 -0.055010
0.145453 -0.136853 0.243237
0.182507 -0.131796 -0.211240
0.188089 0.533482 0.232279
0.290619 0.811543 -0.279925
0.497725 0.192274 -0.214935
-0.634645 -0.003681 0.063516
-0.477095 -0.413716 -0.235605
-0.622074 0.329096 0.037456
0.083422 -0.730604 -0.169819
0.620620 -0.029798 0.155465
0.062200 0.481148 -0.269506
-0.356918 -0.497353 0.328057
0.058178 -0.315424 0.138353
0.299295 -0.351103 -0.185115
-0.526191 0.469528 -0.108699
0.765087 -0.286529 0.186602
0.511569 -0.229996 0.278657
0.180724 -0.309438 -0.196976
-0.349626 -0.155751 0.302401
0.057929 -0.549508 -0.186315
-0.519729 -0.112948 -0.263022
-0.078080 -0.851853 -0.031758
-0.309000 -0.125460 0.096686
-0.205871 0.170333 0.080104
0.583229 -0.140663 0.302470
0.046189 0.487936 -0.271201
-0.101524 0.687957 0.045637
-0.488054 0.020759 0.072026
-0.464156 0.149458 0.063310
0.149464 0.641959 0.273493
0.252690 0.814411 -0.282872
-0.535242 0.439565 0.034721
0.241563 0.767269 -0.279849
0.227372 -0.502129 0.165587
0.089579 -0.058944 0.325990
0.288420 -0.165826 0.348879
-0.639723 0.250744 0.042541
-0.268632 -0.356330 0.324447
-0.076962 -0.855973 -0.070557
-0.264576 0.501549 -0.294544
0.607702 0.255401 -0.212178
-0.038842 -0.682442 -0.182471
0.178975 -0.583996 -0.174858
0.327955 -0.046016 -0.207780
-0.370895 0.284889 -0.284601
-0.091375 -0.080138 0.108873
-0.096704 -0.092905 0.109242
-0.026807 -0.822714 -0.040341
0.543882 -0.468620 0.105887
0.345025 0.448560 0.303157
-0.041445 0.636435 0.223476
-0.420000 -0.416932 0.112355
-0.186478 -0.798441 -0.183639
0.410088 -0.577275 -0.136585
0.143733 -0.127706 0.335436
0.581350 0.113755 0.141025
-0.011055 0.048207 -0.239674
0.706029 -0.371105 0.122327
0.283736 -0.320312 -0.188723
0.722447 -0.188150 -0.168033
-0.285440 -0.741520 0.148281
0.285934 0.612194 0.079503
0.003209 -0.089401 0.322276
-0.180150 -0.913996 -0.173825
-0.105818 -0.067371 0.308011
-0.358734 0.548928 -0.264745
-0.680342 0.333591 -0.310692
0.066842 0.687106 0.117097
0.227860 0.485732 -0.258022
0.318307 -0.032696 0.340232
-0.078318 0.436028 -0.275906
0.014072 0.773063 0.047015
-0.255926 -0.288341 -0.229934
0.042611 0.803922 -0.113416
-0.513072 0.113169 -0.280864
0.073941 0.102977 0.105585
0.698912 -0.188169 0.173898
-0.710939 0.195274 -0.301676
-0.406098 -0.209340 0.302701
-0.253391 0.106360 -0.261728
0.203179 -0.061647 0.334339
0.076405 0.703184 0.201922
-0.127437 -0.530753 0.348682
-0.337187 -0.786456 0.012520
0.116021 -0.103558 0.331497
-0.336390 0.566630 -0.227849
0.661336 -0.108171 0.164728
-0.552311 0.448738 -0.152609
0.512407 -0.140992 -0.186885
0.388697 0.679111 -0.262177
-0.274169 -0.898337 0.147774
-0.716375 0.331703 -0.313117
-0.230045 -0.518743 -0.209416
-0.238888 0.532994 0.048360
-0.188840 0.550865 -0.293119
0.469582 0.462013 0.104813
-0.254942 -0.568024 0.342576
0.278510 -0.326419 0.155012
0.017440 -0.397049 -0.201564
-0.018982 0.514166 -0.277990
0.411495 0.523113 -0.247908
-0.570807 -0.105095 -0.267314
0.382553 0.565908 0.090167
0.685908 0.163599 0.132808
0.174068 0.351024 0.296586
0.656634 0.140271 -0.199350
0.106568 -0.680131 -0.172252
0.238692 -0.158363 0.287705
-0.149570 0.333473 -0.272697
-0.311779 0.216349 0.068796
0.163270 0.878554 -0.084385
-0.142158 0.486069 -0.284529
0.203431 0.388711 0.278317
0.162521 -0.179989 -0.208766
-0.335365 -0.757750 -0.197591
0.364076 0.304521 0.316189
-0.516724 -0.486647 0.101554
-0.071133 -0.535282 -0.196704
-0.691755 0.324196 -0.310747
0.018181 0.046279 0.312356
0.149476 0.819015 -0.290631
-0.052303 0.102025 0.188307
-0.233336 -0.176451 -0.237382
0.136195 -0.506838 0.159443
-0.407602 0.055973 -0.268682
0.647136 0.242643 -0.206244
-0.448153 -0.341334 -0.239397
-0.443900 0.502430 -0.235046
0.002747 -0.482936 0.147956
0.232115 -0.449760 -0.181930
0.403856 -0.202207 0.274424
-0.312746 0.107167 -0.266041
0.015780 -0.705810 -0.176669
0.081656 0.280977 -0.251897
0.412805 -0.575008 -0.131169
-0.032919 0.645918 0.259702
0.469940 -0.537677 -0.101261
0.094764 -0.331095 0.142241
0.739384 -0.349606 0.137399
-0.316070 -0.442841 -0.221722
0.512534 -0.319196 -0.172439
0.193973 0.897221 -0.079626
-0.142690 0.195463 0.082589
0.727527 -0.194419 0.176452
0.124760 -0.723303 0.042090
-0.076592 -0.059087 0.314109
0.388162 0.127868 0.126056
-0.120644 0.687897 -0.274849
-0.183573 0.298461 0.101190
0.524896 -0.495710 -0.023291
-0.104627 -0.548659 -0.198017
-0.027216 -0.721124 0.165108
-0.652581 -0.232280 0.080751
0.323213 0.332642 -0.238795
-0.771851 0.069801 0.047743
0.052338 0.799000 -0.199890
0.847314 -0.286373 0.134737
-0.051458 -0.655523 0.158059
0.610540 0.227200 0.133923
0.869340 -0.148320 0.182236
-0.673673 0.388935 -0.057868
0.353782 0.308279 0.315148
-0.780972 0.297269 -0.289085
-0.426100 -0.067346 0.232997
0.160030 -0.229999 0.138721
-0.313501 -0.416690 -0.223656
0.322753 0.628245 0.080838
0.439452 0.360132 -0.232704
-0.339444 0.280924 0.259727
-0.197379 0.329729 -0.275816
0.221665 0.187943 0.109273
0.194594 0.898385 -0.073152
-0.276774 -0.035496 0.091704
0.572051 0.094352 -0.201683
0.506674 -0.079690 0.357520
0.430470 -0.212369 0.222634
0.399448 -0.211227 0.154334
-0.373845 -0.103765 -0.253326
0.666607 -0.262266 -0.166025
0.800355 -0.047938 -0.173817
-0.114312 -0.863866 0.043950
-0.822218 0.289693 -0.153373
-0.187945 -0.845402 -0.179940
-0.285363 -0.323932 -0.229157
-0.887241 0.155446 -0.300057
0.068345 0.415387 -0.263738
0.190376 -0.167548 0.135834
0.429696 -0.493992 -0.164207
-0.309347 -0.816752 0.152665
-0.524638 0.336170 -0.299758
-0.101816 -0.381197 0.132231
-0.272223 0.057244 0.084517
-0.868904 0.247793 0.026378
0.199622 -0.074973 -0.214618
0.556798 0.339280 -0.222617
-0.757863 0.215585 -0.306679
-0.057169 -0.833483 0.017405
0.877091 -0.232214 0.190217
0.194274 0.664944 0.274838
0.092790 0.277232 -0.250797
-0.088754 0.336016 -0.268551
0.237028 0.852268 -0.287060
-0.214373 0.224956 0.075070
-0.802992 0.208879 0.034248
-0.150910 0.334423 0.237000
0.168618 -0.096662 -0.215080
-0.209215 -0.813575 0.159573
0.676405 -0.168306 0.170678
0.379435 0.305461 -0.232570
0.204426 0.275080 -0.242633
0.513805 -0.477023 0.181483
-0.269776 0.488896 0.117336
0.069930 -0.144504 -0.218267
0.259718 0.192621 -0.231996
-0.800136 0.273664 -0.314410
0.598912 0.310389 -0.217262
-0.329539 -0.589250 -0.210824
0.484424 0.199509 0.127141
0.055487 0.469818 -0.269068
-0.097647 -0.098155 -0.234014
-0.469801 -0.091027 0.249683
-0.325308 -0.176170 -0.243986
-0.406841 0.260515 0.058415
0.175503 0.620174 0.277122
-0.751492 -0.074675 -0.281377
0.294849 0.425132 0.136905
-0.275678 0.485431 0.049581
0.459410 -0.149295 0.359776
-0.024648 -0.647034 -0.184324
0.786045 -0.236176 -0.159591
0.031871 -0.795288 -0.098230
-0.464390 -0.562613 -0.210700
-0.230164 -0.917596 0.161656
0.022279 0.674421 0.227192
0.330719 -0.599230 0.064675
0.148481 -0.649153 -0.171762
-0.225420 0.421115 -0.285226
0.145723 0.527182 0.282524
-0.528377 0.459137 -0.182622
0.336677 0.412842 0.305453
-0.683091 0.212237 -0.301057
0.270877 -0.498170 -0.175234
0.017339 -0.778326 0.108987
-0.399230 0.045152 -0.267207
0.365925 0.359776 -0.237937
0.499610 0.200408 0.128155
-0.041073 0.618550 0.076474
-0.083023 0.587725 0.261249
0.024091 0.404106 -0.265992
-0.196790 -0.254441 -0.228448
0.352606 -0.162431 0.353197
0.447348 0.217429 0.123036
0.194925 -0.213812 0.139907
0.086735 -0.627906 -0.177902
0.549286 -0.435161 -0.160414
0.818235 -0.308469 0.094369
0.686094 -0.376175 0.176484
0.090186 0.358543 -0.257570
0.008545 -0.095133 0.323122
0.569220 -0.363320 0.178806
-0.255815 0.057565 0.085665
0.478156 0.191106 -0.216241
-0.080315 0.027795 0.287074
0.152331 0.037600 0.322659
0.213791 0.385018 0.198794
0.005025 -0.542669 -0.190655
0.237728 0.831302 0.058303
-0.844490 0.287285 -0.066422
0.458833 -0.008959 0.348366
-0.334151 -0.530766 0.201367
-0.088710 -0.825113 -0.174482
-0.180532 0.489292 0.262245
-0.487948 0.481756 -0.192279
-0.155262 -0.912070 -0.151638
-0.061603 -0.856816 -0.150846
-0.148144 -0.882114 0.057558
-0.515224 0.461589 -0.225600
-0.114869 -0.421118 0.134531
-0.451938 0.213840 -0.284645
0.241162 -0.660486 -0.004465
-0.083145 -0.866311 -0.124933
-0.030516 0.742647 -0.261265
0.624437 -0.259460 -0.169270
-0.060874 -0.820869 0.137544
0.034158 0.678192 0.201008
-0.320608 0.019152 0.084140
-0.612515 0.332851 0.037836
0.510091 0.170569 -0.212291
-0.907033 0.255951 -0.021785
0.256004 0.906464 -0.279497
-0.262156 0.061722 0.084874
-0.298682 -0.281128 0.316204
-0.150046 0.424678 -0.280120
0.732810 -0.259077 0.182068
0.169363 0.370494 0.293307
-0.191648 -0.694264 -0.192449
0.265020 0.048507 0.312231
0.243392 -0.235922 0.145167
0.270626 0.755034 -0.276778
0.663159 0.198444 0.140018
-0.740695 -0.053771 0.059984
-0.208950 -0.916606 0.068258
0.373665 0.118320 -0.217822
-0.250310 -0.654504 0.349914
0.409914 0.291136 0.320554
0.859687 -0.247371 0.190200
0.629988 0.073486 -0.195846
0.460794 -0.483269 -0.162850
0.073689 -0.031432 0.322624
-0.628313 0.282722 0.040766
0.133881 0.736796 0.200003
0.007699 0.494871 -0.274518
-0.382973 0.353667 -0.291037
-0.109941 0.528682 -0.285676
0.022227 0.732722 -0.292747
0.092916 -0.143736 0.126930
-0.302815 0.452403 -0.293299
-0.322619 -0.322810 0.317867
-0.471408 -0.332323 -0.241792
0.144126 -0.444196 -0.188678
-0.152633 -0.298879 -0.221688
-0.057203 -0.320800 0.130531
0.052766 0.179554 0.097866
0.432366 -0.006867 -0.203479
-0.750389 0.099812 0.046848
-0.752038 0.325591 -0.197472
0.185566 0.355785 0.299261
-0.134508 -0.238525 -0.225280
-0.102763 0.231206 -0.261063
0.065309 -0.769480 -0.048571
0.098395 0.472907 0.169334
-0.908604 0.234974 -0.184595
-0.126776 0.578921 0.164514
0.092532 -0.699447 -0.171692
-0.369513 0.556191 -0.154224
0.225597 0.664116 -0.272635
0.557537 0.174020 -0.209175
0.258120 0.607651 0.284049
-0.562674 0.406920 0.035402
-0.046474 0.680437 -0.293428
-0.108679 0.444829 0.270989
0.028677 0.677372 0.220561
-0.153582 0.529088 -0.288832
-0.190371 0.084395 -0.255439
0.241908 0.717527 0.067819
-0.750506 0.218421 0.037231
-0.015116 -0.364503 -0.206530
0.440463 -0.357215 0.169097
0.096970 -0.262765 0.136863
0.290523 0.192300 0.209406
-0.093061 -0.850554 0.050421
-0.364707 0.437814 0.156502
0.289536 -0.447963 -0.177966
-0.135340 0.612213 -0.294261
0.214890 0.902200 0.050925
0.052010 0.441641 0.137263
0.811239 -0.339061 -0.120578
-0.104975 0.099445 0.093067
0.800320 -0.340817 -0.082618
0.604105 -0.109186 0.162989
0.546417 0.264014 -0.217262
0.384623 0.243150 0.172326
0.774630 -0.360791 -0.121956
-0.938426 0.229062 0.022440
0.207547 0.105925 -0.228706
-0.367710 -0.098099 0.296436
-0.543134 0.229987 -0.292479
0.517579 -0.004804 0.146066
-0.219444 -0.063208 0.098052
0.117461 -0.739994 -0.058536
0.241905 -0.224320 -0.199493
0.266196 0.598967 0.269659
-0.402842 0.524160 0.037343
-0.396878 0.551117 -0.064566
0.444116 -0.248404 -0.183071
-0.364988 0.547612 0.038152
0.429089 -0.303945 -0.179647
-0.318751 0.186908 -0.272931
-0.136065 0.531326 -0.287759
-0.011112 -0.737969 0.167625
0.188591 0.907653 0.030809
-0.170689 -0.910163 -0.062382
-0.231254 0.084397 -0.258365
0.195843 0.369520 0.158775
-0.063525 -0.200545 0.120336
0.388942 -0.415520 0.170133
0.154348 -0.116492 0.335287
0.218479 0.479836 -0.258215
-0.124756 0.369878 0.275911
-0.539656 0.226099 -0.291915
-0.186947 0.306680 0.184059
0.598090 -0.087790 0.287340
0.155052 0.342093 -0.251595
-0.735378 0.315540 -0.313168
0.279598 0.581465 0.140782
0.496521 -0.225678 0.285053
-0.342313 0.449334 0.142956
0.219446 0.909682 -0.100257
0.117717 0.864705 0.047008
-0.278294 -0.458808 -0.217725
0.421901 -0.533282 0.164139
0.713600 -0.389004 -0.059210
0.557743 -0.481450 -0.156059
-0.316460 -0.664295 0.139805
0.553737 -0.389742 0.179838
-0.352833 -0.361700 0.318856
-0.042005 -0.624393 0.264622
0.040078 0.686077 0.236724
-0.783466 0.065580 0.047254
-0.066481 0.237637 0.084626
-0.116419 -0.025335 0.102357
0.575964 0.337822 0.122487
-0.441465 -0.549829 0.121586
0.784728 -0.251067 -0.158479
0.697553 0.065331 -0.190350
-0.363780 -0.402756 -0.228383
-0.189996 -0.314149 0.120489
0.055094 -0.511587 -0.189590
0.822842 -0.330168 -0.103853
0.071748 0.657268 0.266691
-0.207268 -0.934476 -0.084881
-0.435199 -0.625135 0.120007
-0.278631 -0.055254 0.093172
-0.013329 0.415192 0.234941
0.238961 0.901417 -0.260682
-0.319305 -0.118526 -0.248227
0.044504 0.324533 0.085529
0.633983 -0.136852 0.165094
0.271615 -0.511492 0.169511
-0.423736 -0.494529 -0.225239
0.533209 -0.454097 -0.160031
0.098999 0.009138 -0.228633
-0.212265 0.583913 0.046141
-0.298124 -0.606138 -0.207208
-0.608849 0.071764 -0.284364
0.610230 0.046755 0.148519
-0.103374 0.588703 0.132035
0.570586 -0.353702 0.178124
0.546772 -0.407369 -0.162846
0.767387 -0.357739 -0.062539
0.108349 0.630734 -0.278321
-0.628291 0.418169 0.029795
0.137135 0.799064 0.053716
0.262234 0.283057 -0.239142
-0.653252 -0.218610 0.079596
-0.090962 -0.653112 0.348660
0.377172 0.429362 -0.242769
0.263532 0.402782 -0.248749
-0.637438 -0.211836 -0.263435
-0.391573 -0.043971 0.257692
0.543494 -0.493702 -0.095910
-0.075156 0.001260 0.157813
-0.025545 0.274575 -0.259050
-0.761917 0.103319 0.045739
0.187077 0.378600 0.297521
0.454958 0.009717 -0.203206
0.315490 -0.457964 -0.175299
0.014092 0.058569 0.311068
-0.125858 -0.336314 -0.216739
0.333482 0.465355 0.278764
0.386499 -0.582045 -0.062520
-0.107561 0.583887 0.112955
-0.813201 0.309568 -0.035106
0.285570 0.791965 0.064913
-0.096354 0.228096 -0.260352
0.136998 0.494406 -0.265227
0.137175 -0.728399 -0.058655
0.481252 -0.101182 0.357442
0.408875 0.024777 -0.207724
0.403516 -0.572405 -0.065616
-0.065923 0.672356 -0.294165
0.753560 -0.343775 0.116952
-0.167474 0.557248 0.183145
0.009337 -0.815133 -0.151611
-0.375868 0.574136 0.021866
0.305414 -0.625948 -0.031264
-0.084670 -0.555982 0.353786
0.148482 -0.619407 0.169442
-0.247335 0.501637 0.113475
-0.224748 0.548356 0.048128
0.302147 0.446869 0.278501
0.058599 0.277880 0.090318
-0.814812 0.060386 -0.298182
0.537023 0.202043 0.130700
0.320861 -0.157443 -0.199260
-0.080891 -0.819160 0.169209
0.680558 -0.402658 -0.012075
0.577980 -0.261927 -0.172395
-0.902174 0.242075 -0.157688
-0.631886 -0.257853 -0.259309
0.235160 -0.161014 0.230453
-0.009478 0.661562 -0.289251
-0.125178 -0.231504 0.118432
0.069523 -0.136242 -0.218965
-0.389350 0.332395 -0.289770
-0.130100 -0.049355 -0.240290
0.594844 -0.434571 0.138668
0.526543 0.383564 0.115244
0.668201 -0.391029 0.141440
0.590445 -0.447264 0.056632
0.100818 -0.398106 -0.195511
-0.485230 -0.072370 -0.263840
-0.126200 0.295619 -0.267958
-0.515179 -0.300875 0.096142
-0.383013 0.481390 -0.301387
0.064835 -0.777220 -0.109149
-0.439819 0.421958 0.042976
-0.298157 0.164346 0.073984
0.040529 0.430865 0.104664
-0.174131 -0.184803 -0.232468
0.549519 0.187368 0.132783
0.030621 0.123730 -0.242810
0.012591 0.617630 0.265669
0.182633 -0.653316 -0.168981
-0.617529 -0.193366 -0.263506
0.094202 0.731557 -0.287502
0.167502 0.179480 -0.237531
-0.093798 -0.039644 0.247017
0.009071 -0.418334 -0.200438
-0.368265 -0.640062 0.134134
-0.224229 0.571432 -0.297318
-0.673411 -0.022887 -0.281316
-0.645672 -0.171993 -0.267252
0.239060 0.015884 -0.219156
-0.074271 0.743568 -0.044561
0.247288 0.843568 0.057993
-0.532607 0.164760 0.057172
0.373715 0.706830 -0.261020
-0.055429 0.101978 0.222078
-0.013931 -0.218857 -0.218245
-0.090120 0.648069 -0.293929
0.029461 -0.047618 -0.229012
-0.194460 0.357788 -0.277880
-0.182917 -0.278890 -0.225475
-0.332043 0.026959 -0.260925
-0.679161 0.303056 -0.308133
0.166383 -0.061790 -0.218065
0.160809 -0.388348 -0.192008
0.577238 0.049322 0.145950
-0.602551 -0.100536 -0.269955
0.937270 -0.267532 -0.142433
0.326533 -0.480830 0.170958
-0.598532 -0.215388 -0.260363
0.115129 0.859100 -0.012152
0.039930 0.691845 -0.288169
0.120176 -0.286635 0.140457
0.166715 -0.717716 -0.113166
0.849979 -0.226212 0.187791
0.587233 -0.116471 0.325868
0.118505 0.861578 -0.008167
0.522127 0.279180 -0.220229
-0.107307 -0.867890 -0.022220
0.814057 -0.079309 0.173319
0.298297 0.123751 -0.223656
0.249960 0.409760 0.299497
-0.765576 0.168823 -0.303443
0.353494 0.373176 -0.239912
-0.054201 0.177211 0.090401
-0.066769 0.510887 0.268637
-0.410119 0.547547 -0.030245
-0.682005 0.012073 0.058850
-0.176770 -0.820098 0.162424
-0.703817 0.033438 -0.288055
0.105765 -0.010140 -0.226587
0.131078 0.032348 -0.228218
0.463782 0.553846 -0.241011
0.196911 -0.398162 -0.188630
0.173155 0.826885 0.054039
0.024026 0.797804 -0.074218
-0.009018 -0.761671 -0.173918
-0.465986 0.154699 0.062755
-0.045078 -0.377066 -0.207657
-0.135528 -0.696365 0.210565
0.834418 -0.295938 0.118739
-0.114340 0.694419 0.044196
-0.100096 -0.851132 0.079365
-0.324016 0.452817 0.083739
-0.227993 -0.247946 0.112406
-0.932770 0.224784 -0.109832
-0.559873 0.437748 -0.205688
0.021864 -0.091325 -0.226015
0.822175 -0.310561 0.058537
-0.476383 -0.188832 -0.253772
0.617408 -0.111256 0.161834
-0.203747 0.282591 -0.272453
0.022096 -0.778954 0.081137
-0.031471 -0.639996 -0.185382
-0.141753 -0.887844 -0.019523
-0.413305 0.522227 -0.220600
0.492328 -0.500189 0.096073
0.044755 -0.787197 -0.094144
0.647829 0.218472 0.137299
-0.702995 0.131286 0.047690
0.042253 0.435365 0.132960
-0.002354 0.199222 -0.251286
-0.576783 -0.338618 -0.248823
-0.538275 0.287819 0.046797
-0.524166 -0.420237 -0.238445
0.143743 0.495167 0.133228
0.033154 0.448793 -0.268963
-0.325479 -0.456830 -0.221262
0.067142 -0.234255 0.132418
-0.222723 -0.446729 -0.214726
-0.125969 0.249952 0.079372
-0.520420 0.485037 -0.010367
0.342541 -0.370713 -0.180431
-0.072837 -0.660212 0.204346
-0.728699 0.198844 -0.303236
-0.704303 0.369115 -0.072328
0.780405 -0.247291 -0.159094
0.360673 0.125710 -0.219350
-0.349006 -0.037038 0.086660
0.459564 -0.022189 -0.200291
0.040849 -0.370509 0.141575
-0.263583 0.019560 -0.255426
-0.752664 0.162956 0.041570
-0.600834 0.412402 0.032227
-0.094573 -0.070978 0.107618
0.618071 0.236321 0.133723
0.908485 -0.257749 0.074643
-0.020888 -0.808893 0.043579
0.439226 -0.536040 0.058899
0.244943 0.000500 -0.217489
-0.314813 -0.620006 -0.207279
-0.082150 -0.665366 0.207027
0.249049 0.850790 -0.286080
-0.291893 -0.081826 0.094375
-0.242334 -0.360372 0.326656
-0.419719 -0.389730 0.316340
0.164776 0.348404 -0.251411
0.692388 -0.392085 0.017202
0.381891 0.437181 0.100549
-0.222750 0.201201 -0.267219
0.417607 0.278583 0.302307
-0.318177 0.403602 0.259337
-0.278907 -0.500495 0.335390
0.264693 -0.413546 -0.182533
0.396941 -0.572651 -0.036170
