-0.136396 -0.208373 0.194410
0.375589 0.177455 0.247248
-0.235426 -0.636632 0.213630
0.154500 -0.452550 0.419926
-0.317082 0.272261 0.033292
-0.662100 0.665497 -0.077437
0.602248 0.380080 0.077236
-0.275288 -0.317617 0.273326
-0.008565 0.505362 -0.340654
-0.233217 -0.351825 0.164253
-0.492979 -0.612971 -0.151223
-0.171308 -0.167944 -0.217416
0.149015 -0.309480 0.197811
0.460804 0.509210 -0.307965
-0.146326 0.591728 0.100776
0.458417 -0.039022 -0.198343
0.144203 0.577704 -0.344251
-0.658311 0.351435 -0.256563
-0.050171 -0.417881 -0.158726
0.276429 -0.259731 -0.167116
0.246200 -0.075071 -0.206252
0.237901 -0.636759 0.254900
-0.145272 -0.655030 0.141971
0.469845 -0.288274 0.411199
0.416774 0.332113 -0.275637
0.149725 -0.375841 -0.152896
-0.193796 0.042590 0.263502
0.339493 -0.445603 -0.125397
-0.687731 -0.672332 -0.077039
0.427309 -0.054364 -0.197488
-0.238846 -0.084613 -0.238919
0.517287 -0.220946 0.259439
0.583723 0.141597 -0.225582
0.377749 0.176962 0.245265
0.135536 0.683762 -0.071805
0.034897 -0.676100 0.078495
-0.260267 0.223898 0.047027
-0.481203 0.713136 -0.071682
0.682961 0.463874 0.066209
-0.692350 -0.632695 0.123180
0.712427 0.381895 -0.236323
0.013058 0.585052 0.203739
-0.240293 0.564829 0.189729
-0.355724 0.652277 -0.350478
-0.146592 0.152242 -0.279776
0.015208 -0.046800 0.266724
0.117917 -0.304115 0.217546
0.684149 0.147791 0.030176
-0.583774 -0.327274 -0.214911
0.471113 -0.389955 0.431653
-0.206380 0.661572 -0.267168
-0.370837 0.485260 -0.362454
0.614211 -0.557134 -0.083477
0.008014 -0.058508 0.248168
-0.124380 0.553107 0.200339
0.592835 -0.561443 -0.084138
0.195482 0.108012 -0.246533
-0.416769 -0.194894 0.157709
-0.686106 -0.379482 -0.202537
-0.263050 -0.511643 0.194132
0.006619 -0.269285 0.164820
-0.490435 0.084968 -0.290815
-0.668311 -0.145247 -0.257391
0.000517 -0.085200 -0.221737
0.017165 -0.227753 0.157255
0.646932 0.103947 0.135721
0.378111 -0.356384 -0.140511
0.638086 -0.134062 -0.166502
0.232150 -0.151231 -0.192001
0.147170 -0.179476 -0.192403
-0.047708 -0.202045 -0.201775
0.595459 0.398263 -0.276147
-0.094917 0.606655 -0.367095
-0.324906 0.480822 0.200521
0.660584 -0.606586 0.020051
0.145186 0.033965 0.113968
0.269868 0.637911 -0.272230
-0.286164 0.665708 -0.043298
0.412977 -0.431049 -0.123073
0.197960 -0.197613 0.164107
0.585065 0.090535 0.133997
-0.126429 -0.215729 -0.204647
0.272578 0.461882 0.037352
0.440377 0.164991 0.108771
0.413020 -0.539509 -0.101349
0.322769 -0.117616 0.158534
-0.664224 0.305868 -0.199431
-0.509810 -0.531046 0.180427
0.237328 0.663298 -0.151144
-0.151904 -0.158077 0.340803
-0.415851 0.324196 0.015850
0.136198 -0.648780 -0.099200
0.051888 -0.015761 0.254081
-0.305376 0.616703 -0.034854
-0.661100 0.183604 0.026522
0.347324 0.249017 0.085310
0.204680 -0.401966 -0.143746
-0.128716 0.397119 0.178826
0.600462 -0.216235 -0.152727
-0.096854 -0.390679 0.181755
0.433507 0.666455 -0.087692
-0.137687 0.392115 0.151237
-0.288884 0.596255 0.089314
0.596503 0.113217 -0.218987
-0.329730 0.094126 0.068064
0.406532 -0.690691 0.094214
-0.599551 0.207706 -0.323174
0.585539 0.624142 -0.265866
0.006443 -0.068186 0.217464
0.655142 -0.312958 0.211948
0.201049 -0.313382 -0.161745
-0.646338 0.594981 -0.309434
-0.166475 -0.058995 -0.238890
0.479731 0.177469 0.272495
0.614939 0.655922 -0.097338
-0.027719 -0.699676 -0.056391
-0.560736 0.702368 -0.145602
0.424248 -0.639417 -0.080541
0.357813 0.276354 0.080583
-0.512200 -0.493053 -0.176609
-0.252812 -0.280250 0.334252
-0.460852 -0.227820 -0.226065
0.188214 0.190254 -0.263521
-0.021572 0.397749 -0.320030
0.687077 0.433812 -0.276735
-0.624386 -0.167698 0.099493
-0.306327 -0.345456 0.278135
0.136228 0.640860 -0.289554
-0.671573 0.220391 -0.140403
-0.507185 0.388639 0.044265
-0.445399 0.670646 -0.278850
-0.647347 0.480650 -0.343935
-0.117289 -0.568204 0.215850
-0.628866 0.438884 -0.022303
-0.670042 0.203096 0.021981
-0.663234 0.127020 -0.286414
-0.658459 0.419947 -0.226214
-0.118536 0.334731 0.034935
-0.543109 0.617093 0.135793
0.539647 -0.028109 0.154519
-0.384413 -0.064167 0.095867
-0.268997 -0.395719 -0.178764
0.136196 0.693601 -0.021668
0.691629 0.195871 -0.046067
0.392648 0.206580 0.097040
0.087226 0.050333 0.106558
0.604069 0.676704 0.005597
-0.063646 -0.658984 0.141616
-0.506394 0.143398 0.045603
0.419560 -0.150866 0.380097
-0.329831 -0.247311 0.345989
-0.021587 -0.472848 0.389054
0.702801 0.254540 -0.165400
-0.459929 0.611617 0.125996
0.414350 0.638951 -0.232024
-0.308590 0.346406 0.019048
0.537221 -0.697401 0.091722
0.520403 -0.296119 0.206820
-0.331655 -0.069206 0.100637
0.448913 -0.497705 0.376523
0.255416 0.633089 0.001842
0.678539 0.087187 0.077159
0.347719 0.179363 0.250202
-0.503471 0.657411 -0.360114
-0.503591 -0.341022 0.298948
0.202669 0.208523 0.083108
-0.311314 -0.337445 -0.193451
0.175429 0.361440 0.050542
0.161637 -0.316539 0.384608
0.627176 -0.713910 0.029611
0.030671 0.608911 -0.009337
-0.690407 -0.356505 -0.137688
0.468311 0.565929 0.030469
0.406590 0.646491 0.009935
0.262463 0.631712 -0.305508
-0.594458 0.701786 -0.156710
0.387381 -0.210528 -0.169060
-0.222590 -0.000191 0.204500
0.205949 -0.365049 -0.151049
-0.301060 -0.087325 0.106446
0.323070 0.146881 0.264482
0.402231 -0.564224 0.252088
-0.200213 0.006695 0.151683
0.679878 0.159550 0.089989
-0.266706 0.599969 0.113540
-0.282802 -0.110453 0.321934
-0.497484 -0.043491 -0.265591
0.662953 -0.124162 -0.166712
-0.334140 -0.413430 -0.179861
-0.122543 0.642421 -0.344176
0.635638 -0.075121 -0.178480
0.525128 0.618526 -0.308995
-0.553875 -0.435934 0.158238
0.442453 0.649868 -0.169779
0.446421 -0.503644 0.345751
0.364679 0.170958 0.211611
-0.194071 -0.221066 0.349471
0.700721 0.284843 -0.126071
-0.484480 -0.584318 -0.156356
-0.467742 0.520914 -0.376502
-0.108043 -0.343088 -0.177830
0.348252 -0.520865 -0.109700
-0.457981 0.488436 -0.369302
0.191868 0.679899 -0.077811
0.479537 0.520224 0.040422
-0.064914 0.529574 0.209291
-0.361775 -0.105018 -0.243595
0.370164 0.581669 0.020320
-0.685444 -0.235794 -0.151398
0.030342 -0.175178 0.147665
0.141674 -0.103957 0.141338
0.565916 0.626408 -0.259100
0.343579 0.047364 0.334982
0.383401 -0.460217 0.439471
0.153078 0.662272 -0.176723
-0.011038 0.648387 -0.286919
0.182128 -0.144274 -0.196961
-0.294248 -0.066429 -0.246510
-0.329427 0.537251 -0.369914
0.423727 -0.509034 0.312891
-0.046161 -0.485166 0.204291
0.634686 -0.473289 0.250448
0.310580 -0.186363 0.286753
-0.458059 -0.675317 -0.036685
-0.039907 0.122508 0.292595
-0.390712 0.002884 -0.267267
-0.560384 0.044327 0.061594
0.022143 -0.303028 0.382239
-0.328538 0.265103 -0.315348
-0.625982 0.019997 0.061791
0.724076 0.582214 -0.302981
-0.523149 0.652787 -0.388361
-0.331113 -0.600339 0.207043
-0.339027 -0.385320 0.243770
-0.237335 0.515431 -0.358979
0.674888 -0.001298 0.087378
-0.145441 -0.165227 -0.216116
-0.245085 -0.654626 0.119897
0.586861 -0.050765 -0.186835
0.307675 -0.681367 0.117681
0.403857 0.163806 0.184754
-0.310325 0.230330 -0.307086
-0.441040 0.706657 -0.062539
0.507214 -0.383673 0.321432
0.187635 0.429106 0.037861
-0.297048 0.383809 0.070526
0.695387 0.102813 -0.133042
-0.164915 0.066658 0.085314
-0.174940 -0.346175 -0.181981
-0.091984 -0.664300 0.107765
-0.588056 0.299007 0.008618
0.021828 0.128775 -0.263070
-0.183989 0.607135 -0.024284
0.672589 0.031442 0.130544
-0.654308 0.690157 -0.167413
-0.283230 -0.341202 0.212936
-0.390597 0.654817 -0.346006
-0.615360 0.107869 -0.304307
0.620667 -0.481193 -0.098225
-0.334477 0.386839 0.076873
-0.646632 0.556185 -0.321770
-0.339522 -0.173906 0.330598
0.394789 0.640157 -0.230628
-0.609191 0.475187 -0.028171
-0.490358 -0.236745 -0.226381
-0.156184 -0.289893 0.157342
0.229239 -0.399002 -0.142589
0.618391 -0.700936 0.093387
0.081494 -0.495005 -0.133895
-0.501713 0.405398 0.130714
-0.606559 -0.172238 0.101673
0.165218 0.486873 -0.324563
0.125346 0.284033 0.062474
-0.484187 -0.462038 0.168434
-0.443316 0.597367 0.168739
-0.250486 -0.623064 0.217341
-0.072048 0.063916 -0.256773
0.427116 -0.632249 -0.081772
-0.012761 0.399136 0.217099
0.075378 0.673728 -0.137312
-0.310845 -0.687308 -0.062007
0.681493 0.211104 0.090621
0.465184 0.445521 0.054359
-0.162184 0.151007 0.068617
-0.247433 0.550841 0.192021
-0.414898 -0.682496 -0.062718
0.402292 -0.504091 0.332815
0.688259 0.046093 -0.064916
-0.481820 0.509114 0.183669
-0.344749 0.107123 0.064391
0.328978 0.474572 0.038832
0.521392 0.637348 -0.214292
-0.199224 -0.165318 -0.219932
0.082215 -0.645918 0.243243
0.172675 -0.503035 -0.125787
0.584797 -0.338686 -0.129321
-0.245208 -0.306997 0.207426
0.509787 -0.302633 0.321985
0.051385 -0.383153 0.400369
-0.302058 0.028015 0.083277
0.666202 0.614441 -0.295642
0.091322 -0.273501 0.366620
0.292661 -0.471570 0.398816
0.031790 0.185866 0.075464
0.100878 0.010088 -0.233666
0.407884 0.017535 -0.213272
0.073848 0.393657 0.210204
0.593219 -0.210193 -0.154454
-0.231693 -0.274872 0.280206
0.487132 0.282528 0.088566
0.516032 0.227245 0.101697
-0.487481 0.612631 -0.396277
-0.592403 0.108846 -0.302866
0.356958 0.333205 -0.280120
0.568073 0.184318 0.114004
0.315756 -0.169770 0.376482
-0.599013 -0.152307 -0.251037
-0.281686 -0.603652 0.211230
-0.456303 0.588205 -0.039906
-0.110265 0.579622 0.048000
-0.182052 -0.019072 0.310816
-0.641971 0.559481 -0.047389
0.677375 0.030690 -0.196695
0.036378 -0.224230 -0.191338
-0.188220 -0.686786 -0.029712
0.340129 0.183444 -0.251328
0.253618 0.294960 0.069429
-0.487188 0.663549 -0.325000
-0.486126 0.667607 -0.304133
0.466521 -0.693244 0.095748
-0.545559 0.600108 -0.397909
-0.397146 -0.691962 -0.106507
0.420096 0.658908 -0.129267
0.243031 -0.662340 -0.088868
-0.351332 0.228708 0.039572
-0.030703 0.497428 0.218168
0.612995 -0.514158 0.257087
-0.013401 0.645013 -0.304630
0.484610 0.673617 -0.038957
0.043984 0.249533 -0.285674
-0.205861 0.388494 0.116366
0.221538 -0.056743 0.137576
-0.382615 -0.499442 0.183165
-0.642978 0.545345 -0.373259
0.194220 -0.706671 -0.038274
0.675260 0.037430 0.098672
0.322025 0.117363 0.265658
-0.530361 0.525012 0.177025
0.689592 0.081758 -0.067253
-0.454217 0.561837 -0.383733
-0.373876 -0.017902 0.087353
0.590409 0.444080 -0.285682
-0.533264 -0.307697 0.144637
-0.097205 0.650734 -0.026829
-0.652399 0.466126 -0.284987
0.035166 -0.512105 -0.133773
0.424170 0.258023 -0.260272
-0.282317 -0.402407 -0.178375
-0.696875 -0.637631 0.097014
-0.377982 0.093031 -0.284413
-0.302089 0.394546 0.123846
-0.389878 0.408505 0.173529
0.631432 0.612068 -0.316104
0.331871 0.126015 0.108842
-0.672732 -0.563118 -0.174021
-0.249270 0.399104 0.159764
0.556622 0.393551 0.071285
0.313074 -0.119502 -0.192587
0.407469 -0.182155 0.385501
-0.003391 -0.692136 -0.012214
-0.422543 -0.205419 0.330990
0.631480 -0.366990 0.228932
0.189183 0.691840 -0.014645
-0.140166 0.337974 0.032743
0.228282 -0.122684 0.151263
-0.111368 0.325151 0.037364
-0.709409 -0.600665 0.005339
-0.694597 -0.269356 -0.047613
-0.427953 0.450737 0.199200
0.670195 0.662514 -0.050495
0.485696 0.221778 -0.248627
-0.165208 -0.695556 -0.068701
-0.334831 -0.368277 0.292829
-0.294145 -0.319755 0.331554
-0.707167 -0.363613 0.074915
0.351886 -0.148548 -0.184003
0.388267 0.071019 0.333430
0.082785 -0.190788 0.154530
-0.103381 -0.523651 -0.141338
0.628012 -0.116339 0.178488
-0.238405 0.576584 0.001598
-0.351954 0.598311 0.084510
0.379019 -0.404929 0.428086
-0.095181 0.403229 0.217966
-0.098778 0.372072 -0.320392
0.686199 -0.100131 -0.099122
-0.037238 0.181326 0.071452
0.207005 0.476364 -0.319479
-0.081026 -0.531687 -0.138135
-0.208254 -0.312738 -0.191052
-0.283167 0.200582 -0.299193
0.499251 -0.451189 0.395814
-0.290476 -0.360998 0.164286
-0.122314 -0.036052 -0.240336
0.345165 -0.233713 -0.167427
-0.396736 -0.427884 0.287140
-0.137270 0.666381 -0.226037
-0.721765 -0.623561 0.154747
0.453744 0.682070 -0.003486
0.516200 -0.299589 0.240769
0.326115 0.217126 0.090185
-0.177186 -0.677205 0.021616
-0.088688 -0.363829 0.176960
0.644192 -0.002084 -0.192497
0.199869 0.557334 0.013053
0.250734 0.585409 0.011057
0.537204 0.065594 -0.213677
0.247847 0.377170 -0.296703
-0.668164 0.045458 -0.256873
0.066785 -0.303381 0.208914
0.664768 0.612299 -0.306870
-0.171081 -0.543874 0.207143
0.499893 0.380133 -0.279328
0.613160 0.673996 -0.005960
0.058824 -0.380348 -0.158473
-0.137494 -0.173797 0.327691
0.187665 0.645087 -0.255651
-0.152006 0.394019 -0.328581
0.524069 -0.164299 0.195734
-0.102975 -0.643458 0.210975
0.507403 0.167391 0.113069
-0.678492 -0.068163 -0.171221
0.330165 0.596031 0.014592
0.708442 0.544317 -0.117644
-0.175845 0.560839 -0.363689
-0.694626 -0.401053 -0.101918
-0.257141 0.110332 0.069993
-0.241545 -0.037358 0.310236
-0.687035 -0.172023 -0.104458
0.597658 0.095276 -0.215312
0.468388 -0.209829 -0.163425
0.470789 0.161474 -0.237613
0.076226 -0.562666 0.228536
0.190580 0.667961 -0.138763
0.163398 0.634481 -0.315392
-0.269314 -0.674180 -0.123021
-0.631154 -0.410796 -0.201562
-0.315765 -0.261904 -0.208897
-0.161102 -0.675873 0.032273
0.427663 -0.714483 -0.021528
-0.026657 -0.434766 -0.153669
-0.014203 0.561486 -0.352296
-0.584582 -0.015747 0.071900
-0.002747 -0.002372 0.320253
-0.387774 0.153253 0.052085
0.424776 0.350666 0.070475
0.029836 -0.059828 -0.224729
-0.315594 0.160782 -0.293534
-0.634780 -0.199452 0.105111
0.515396 -0.227388 0.281092
0.434346 0.105282 -0.228958
0.022925 0.664086 -0.198968
-0.400215 0.098971 0.062069
0.076263 -0.291205 0.273056
0.034283 0.512684 -0.339066
0.701860 0.372865 -0.104169
-0.284290 -0.671371 0.025362
-0.693011 -0.175241 -0.028934
0.595985 0.580861 -0.312677
0.609118 0.477910 0.058134
-0.465892 0.263621 0.024414
0.008415 -0.052849 0.267943
0.442483 -0.690393 0.104418
-0.574468 0.526865 -0.036045
0.139104 0.028005 0.114728
-0.702507 -0.545924 -0.060703
0.264419 0.083083 0.112631
0.272204 0.150077 0.099769
0.237121 0.569934 -0.336071
-0.619897 0.368675 -0.356860
-0.025787 -0.312916 -0.178009
0.244328 0.443345 0.039051
0.548992 -0.670330 0.232069
0.624464 -0.703157 0.083574
-0.427591 -0.178744 -0.233522
-0.534743 -0.636006 -0.149588
-0.582023 0.492783 -0.029758
0.271951 -0.404460 -0.138451
-0.504314 -0.336420 0.330199
-0.667944 -0.272965 0.117470
0.443481 0.222004 0.097575
-0.499886 0.003286 0.074126
-0.133199 -0.403425 0.181717
0.003738 -0.048527 0.300547
-0.133965 -0.163550 0.343177
0.249379 -0.000484 -0.220963
0.577338 -0.293445 0.210344
0.526847 0.274484 -0.256249
-0.264511 -0.667586 -0.123999
-0.643829 -0.414128 0.147459
-0.404961 -0.369872 -0.193633
-0.235342 -0.246469 -0.206255
-0.052070 0.173036 0.253998
0.470496 0.255903 0.092712
0.161428 0.352522 0.051330
0.249054 -0.572729 0.242872
-0.165429 -0.451657 -0.160179
0.258779 0.658212 -0.171794
-0.375089 0.428610 0.207399
0.034803 -0.092402 0.131406
-0.060492 0.428869 -0.329037
0.265121 0.144957 0.100290
0.616970 0.038500 0.146692
-0.629531 -0.587910 -0.165977
-0.318447 0.642977 -0.388709
-0.535648 0.528299 0.002971
0.536867 -0.420373 -0.116379
-0.701211 -0.578407 -0.090862
-0.311014 -0.658031 0.086662
0.377570 -0.392822 -0.133252
0.374629 -0.330722 -0.145899
-0.234755 0.584149 0.040905
-0.079249 -0.134658 0.269621
-0.441416 -0.339834 -0.202247
-0.316562 -0.299681 -0.201388
-0.420194 -0.428193 -0.183039
0.600126 0.034026 0.146387
0.172667 -0.201122 0.163007
-0.620733 0.023487 -0.287791
-0.392371 -0.235766 0.339219
0.099763 0.015676 -0.234864
-0.445356 -0.608678 -0.148688
0.699106 0.323859 -0.089092
-0.325747 0.707904 -0.060681
-0.182725 -0.180666 0.343129
-0.104297 -0.667509 0.088490
0.034617 0.191250 0.074587
-0.163686 -0.207110 -0.209029
0.690613 0.371287 0.039832
-0.602928 -0.150612 0.097601
-0.370533 -0.666740 0.028040
-0.680120 -0.003602 0.062657
-0.185212 -0.019770 -0.248081
-0.288682 0.610928 0.163889
-0.488910 0.477769 0.189441
0.294095 -0.442254 0.219953
-0.639228 0.463630 -0.377255
0.126894 0.306158 0.058153
0.027242 -0.613384 -0.114056
-0.707167 -0.641819 -0.040583
-0.467659 0.687183 -0.060537
-0.120241 -0.520514 0.206089
-0.333395 0.679841 -0.205073
-0.297150 -0.271929 -0.205562
0.356537 -0.598270 -0.093608
-0.534065 0.603857 0.068663
-0.000141 0.656700 -0.242064
-0.551280 0.305582 0.009923
0.701281 0.645824 0.016597
-0.404553 -0.333949 -0.200798
-0.673204 -0.244139 0.111322
-0.549784 0.682995 -0.065553
0.602751 0.047045 0.143967
-0.036859 -0.284767 0.305157
-0.552110 -0.213868 -0.235365
-0.271518 0.585976 -0.375543
0.191058 -0.095863 0.143238
0.152458 -0.306557 0.213494
0.045530 0.063991 0.216369
0.685074 -0.073962 -0.175188
0.711059 0.631230 -0.199522
0.242015 0.271602 -0.275977
-0.048680 0.121476 0.292176
0.517126 0.082935 -0.218581
0.284545 -0.229770 -0.172538
-0.695015 -0.398962 -0.096047
-0.696500 -0.087701 0.052284
0.667497 -0.053103 0.160935
-0.613807 -0.097386 0.086166
-0.067169 -0.137229 -0.216143
-0.278327 0.634202 -0.036430
0.638792 0.634472 -0.200524
-0.297961 0.003600 0.088458
0.331705 0.164369 -0.248108
0.173268 -0.635885 0.250117
-0.391560 -0.689734 -0.093839
0.642581 -0.571084 0.266338
0.632481 0.235426 0.108360
-0.285527 0.594017 -0.378152
0.241347 0.642552 -0.255554
-0.437472 -0.413044 0.304999
0.325666 0.567025 -0.329176
0.003510 -0.300469 0.208412
0.452814 -0.447084 -0.117022
-0.132719 -0.275940 0.156220
-0.017359 0.229385 -0.286012
0.062416 0.614607 -0.008215
0.312643 -0.166893 0.166130
-0.249138 -0.541068 0.201017
-0.168192 -0.034493 0.314892
-0.678339 0.334105 -0.006174
0.601608 0.348216 0.083571
-0.243322 0.004786 0.092116
-0.151143 -0.642773 0.202808
0.002912 -0.532404 -0.132007
-0.019190 0.636552 -0.349006
-0.438810 0.603420 0.089468
0.117334 0.682414 -0.083052
-0.684214 -0.060171 -0.094304
-0.535485 -0.261672 0.334205
-0.217146 0.690308 -0.123806
0.091637 0.025155 -0.237342
0.114840 0.036216 0.111354
0.020556 0.484450 0.224421
-0.019042 0.654785 -0.256358
-0.070833 -0.153548 -0.213136
0.518196 -0.300759 0.214606
-0.462921 0.378787 0.004924
0.320672 -0.415533 -0.132760
-0.241765 0.668815 -0.238932
0.595037 0.144281 -0.225313
-0.013644 0.603882 0.198065
0.062696 -0.648503 0.225394
-0.633069 0.441895 -0.372463
0.516658 0.163474 -0.234744
0.075378 -0.292471 0.266410
-0.279613 -0.404887 -0.177685
-0.224911 0.429825 -0.340949
-0.539420 0.051567 0.061639
-0.548999 0.524158 0.172966
-0.227890 0.588723 -0.023726
-0.404354 0.499983 -0.367791
-0.046311 -0.450155 0.358056
0.717832 0.567327 -0.301280
0.565038 -0.055197 -0.187503
0.667997 -0.212164 -0.148728
-0.489205 0.661681 -0.334980
-0.278654 0.015742 0.087403
-0.157677 0.664523 -0.240406
-0.504671 -0.177749 -0.239217
-0.073054 -0.525594 0.210470
-0.476600 -0.366647 0.332416
-0.317084 0.693908 -0.051150
-0.477828 -0.133559 0.103104
0.309591 -0.345884 0.233247
0.463167 -0.217949 0.396640
-0.490994 0.029904 0.069430
0.174446 0.357902 0.051181
-0.694753 -0.446385 -0.119104
0.026704 -0.271802 0.359629
-0.443297 0.596245 -0.389845
-0.063721 0.677641 -0.151059
-0.361464 -0.391543 0.299283
-0.005501 0.010361 0.317507
0.565469 0.673022 -0.022437
0.012472 0.010392 -0.240029
0.273645 0.678984 -0.062692
0.074422 -0.117703 -0.209960
0.059192 0.511647 -0.337082
0.235724 0.615596 0.003942
-0.589378 0.258903 -0.332701
0.483218 0.663214 -0.092135
0.433924 -0.132867 0.377516
-0.672229 0.385366 -0.063476
-0.701698 -0.584627 -0.087180
0.537730 -0.622186 0.273355
0.410968 -0.003680 0.350008
0.073223 -0.106289 0.136926
-0.193735 -0.194206 0.345056
-0.012154 -0.651812 0.190493
0.686050 0.105474 -0.011852
-0.222010 0.548063 0.194390
-0.318387 -0.660102 0.074363
-0.058876 -0.689910 -0.104869
-0.505388 -0.501924 0.174910
0.432084 -0.599049 -0.088066
-0.549336 0.520225 0.175666
-0.620615 0.663333 -0.358353
-0.501950 -0.274689 0.158207
-0.375498 0.695920 -0.133578
-0.365372 0.234821 -0.311910
0.670105 0.472200 0.063625
-0.413154 0.268125 -0.321986
0.005978 0.361753 0.038400
0.697181 0.279866 -0.082598
0.337610 0.434039 -0.301692
-0.661224 -0.569987 -0.171825
-0.402107 -0.156407 0.250278
-0.090255 -0.153377 0.238210
-0.561349 -0.423926 0.155301
0.686596 0.449574 -0.279926
-0.442395 0.684290 -0.208821
0.702872 0.353118 -0.125380
-0.147977 0.044494 0.300515
-0.713496 -0.441412 0.124021
-0.061558 -0.122590 0.252657
-0.114985 -0.422604 -0.162401
-0.038306 0.257884 -0.293213
-0.160139 -0.028718 0.314309
0.054531 0.600388 0.193316
0.057295 -0.034225 0.165973
-0.583458 0.657650 -0.378238
-0.298457 0.672016 -0.236372
-0.627772 0.641744 -0.412108
-0.564069 -0.664030 -0.004976
-0.638517 0.524141 -0.389322
0.482100 -0.694448 0.093397
-0.527837 0.022030 0.068380
-0.325963 -0.351434 -0.191694
-0.606086 0.067891 -0.295639
-0.282077 0.659825 -0.294338
0.344624 -0.690628 0.079572
-0.004574 0.099354 -0.259060
0.718877 0.531627 -0.257122
0.030068 -0.483458 -0.139874
-0.461032 0.327876 -0.337365
0.250983 0.591842 0.009787
0.360263 -0.707690 -0.003316
-0.026037 0.672677 -0.167169
-0.259382 -0.418346 0.175709
0.704345 0.575390 -0.052051
0.406824 0.626659 -0.296279
0.536698 0.501793 0.048188
0.054952 0.620472 -0.009922
0.275322 -0.135744 -0.192025
-0.659369 0.602627 -0.138664
-0.297252 -0.658419 0.088016
0.510132 -0.218201 0.352605
-0.255726 -0.282813 -0.200429
0.207322 -0.152484 -0.193520
0.407036 -0.159919 -0.177794
0.116156 0.248313 -0.280285
0.523681 0.539413 -0.309531
-0.325711 0.060391 -0.274150
-0.111716 -0.441304 -0.158423
0.656929 -0.507524 0.108191
-0.209239 -0.239436 0.333985
-0.221450 0.169199 -0.288508
0.389538 0.668315 0.004349
0.074627 0.246014 -0.282785
0.476821 0.645404 -0.184148
-0.473812 -0.402392 0.157228
-0.298914 0.252080 -0.310629
-0.309073 -0.682402 -0.036662
0.142165 0.591902 0.002017
0.562547 0.502923 -0.299453
0.524562 0.034815 0.272063
-0.331416 0.270198 0.032683
-0.018630 -0.305044 0.170182
0.305885 -0.157693 0.359045
0.342759 -0.037143 0.351847
0.674368 0.049090 0.114985
0.345091 0.630380 -0.292303
0.515969 -0.309378 0.239670
-0.418957 0.398971 0.118075
0.504964 -0.364842 0.358183
-0.410362 -0.631007 0.199912
0.153402 -0.624190 -0.102898
-0.351546 0.490304 0.196723
0.450952 0.168753 0.221267
-0.133138 -0.691930 -0.042528
0.548342 -0.384612 0.226534
-0.241076 0.160352 0.061121
0.093443 0.367388 0.081507
0.038983 0.458172 -0.327814
-0.578501 0.486626 -0.028274
-0.220156 0.024635 0.288879
-0.284795 0.581595 0.015835
0.639731 -0.222592 0.200602
0.007673 -0.468192 0.414284
-0.342108 -0.646498 0.137729
0.027288 0.068489 0.308203
0.679125 0.196655 0.115078
-0.151240 -0.137192 -0.222144
-0.190046 0.327748 0.031236
0.701889 0.242134 -0.158826
0.608402 0.672443 -0.015000
0.047127 0.393603 0.203467
0.605201 -0.204219 -0.154796
0.432374 0.651608 -0.163379
0.509436 -0.432743 0.272485
0.007829 -0.135387 0.138091
-0.683679 -0.031624 0.068016
0.331567 -0.478213 -0.119431
0.683113 0.668561 -0.016659
-0.523475 -0.374469 0.148096
0.306921 -0.366265 0.415204
0.248589 -0.356656 -0.149690
0.649027 -0.573105 -0.077797
-0.042354 0.380441 0.114982
0.111018 0.092262 0.099857
-0.530639 0.580902 -0.392999
0.164311 -0.308345 0.207276
-0.099749 -0.161419 0.241453
-0.299541 -0.402605 0.169694
0.598933 0.634966 0.025955
-0.173380 -0.243230 0.193836
0.159719 -0.032703 0.128355
-0.039655 0.593905 0.137618
-0.453083 0.227649 -0.316726
0.368349 -0.036375 0.353517
-0.698651 -0.449182 0.150571
-0.460030 -0.549200 -0.161646
0.419829 -0.483510 0.441593
-0.194487 -0.378391 0.172334
0.079155 0.026421 0.211701
0.118398 0.300629 -0.290602
-0.385942 -0.403022 -0.185638
-0.530582 -0.228185 -0.230963
-0.328218 0.681129 -0.197281
-0.005793 0.576948 -0.005536
0.092740 0.426711 0.241130
0.381508 0.477402 0.042010
0.666568 0.453915 0.067034
-0.588021 0.534419 -0.387781
0.258365 -0.268061 0.182521
0.291988 0.256525 0.079862
0.635851 0.407654 -0.275148
-0.253963 0.660935 -0.281902
0.601264 -0.577100 -0.080401
0.637647 -0.309410 0.217840
0.627767 0.655369 -0.097046
-0.213456 0.598628 0.119596
-0.167832 -0.572902 0.213188
-0.113885 -0.088755 -0.229181
-0.228271 0.007258 0.252337
0.259545 0.169746 0.094928
0.312189 0.491841 0.034177
-0.016830 0.610013 -0.362201
-0.021096 0.525532 -0.345586
-0.691644 -0.400027 -0.139841
0.149949 -0.673949 -0.093179
0.661710 -0.546180 -0.082285
0.531850 -0.060669 -0.188773
0.318203 0.656281 -0.167239
-0.307882 -0.038646 -0.253046
-0.514476 0.443374 0.194506
-0.173167 0.114610 -0.274134
-0.304032 0.215317 -0.303631
-0.123133 0.579316 0.043338
-0.609833 -0.682983 -0.112310
-0.122414 -0.371220 0.176036
-0.331193 -0.360933 0.307537
0.010050 -0.473517 0.393300
0.101095 0.222752 -0.276240
0.174751 0.667647 -0.144184
0.700118 0.488457 -0.033775
-0.386180 0.399454 0.128450
-0.376319 -0.636058 0.182488
0.607757 0.420033 0.069627
-0.258575 0.514169 -0.360240
-0.080396 0.170852 -0.278784
0.388327 0.228120 -0.256839
-0.207781 -0.686675 -0.033880
-0.494404 -0.668092 -0.008772
-0.439476 -0.049247 0.088953
0.697386 0.656731 -0.073297
-0.247146 0.102842 0.072206
0.597772 0.120759 0.128850
0.697716 0.069890 -0.176657
-0.506524 0.450082 0.193730
-0.134120 0.328824 -0.314250
0.574446 -0.481939 -0.101371
0.462706 0.264213 -0.258765
0.691299 0.190338 -0.044122
0.016980 0.543757 0.212289
-0.531288 -0.318957 0.229891
0.504719 -0.379345 0.355321
-0.281211 0.677763 -0.203012
-0.385920 -0.055008 0.093925
-0.389060 -0.568182 -0.152785
-0.046393 -0.260529 -0.189969
0.705906 0.556887 -0.079810
0.314326 0.025192 0.337336
-0.046032 -0.246301 -0.192793
-0.700341 -0.170849 0.067159
0.023761 -0.304266 0.194020
-0.110886 0.089130 0.146506
0.378484 0.118554 -0.235598
0.645321 -0.121224 -0.168557
0.659599 -0.492530 -0.093179
-0.319287 0.374655 0.018655
0.312150 -0.238407 0.244962
0.710634 0.367146 -0.219386
0.650085 0.318083 -0.256195
-0.696470 -0.537120 -0.134692
0.328658 0.663342 -0.128846
0.451411 -0.384791 0.429214
-0.387245 -0.521239 -0.162057
-0.507787 0.622434 -0.050431
-0.411030 -0.660222 0.051356
0.005286 -0.147558 0.140347
0.053741 -0.030336 0.193012
-0.301519 -0.074359 0.103817
0.650255 0.062149 -0.204928
-0.648898 0.519433 -0.307884
0.489085 0.148636 0.128298
0.628083 -0.178373 -0.158341
0.264308 0.316557 -0.283390
0.198071 -0.406332 0.205914
-0.535760 0.495946 -0.009017
-0.381160 -0.245460 -0.216852
-0.353683 0.666245 -0.279035
0.060824 0.044330 0.193134
0.558340 -0.383643 0.227053
0.475418 0.646654 -0.178136
-0.020292 -0.345900 -0.171012
0.336290 0.635553 0.007114
-0.461236 0.688513 -0.191925
-0.116807 0.077654 0.086542
0.703436 0.176978 -0.205774
-0.533508 0.711583 -0.092212
-0.701831 -0.364301 0.133345
-0.266830 0.177717 -0.293449
-0.457108 0.302238 -0.331951
0.702977 0.512466 -0.060583
0.254280 -0.490319 0.226741
0.700440 0.643825 0.026592
0.615166 -0.350032 -0.124884
-0.201450 -0.002402 -0.252717
0.201498 -0.578024 -0.108715
0.062845 -0.352874 -0.163689
-0.490011 -0.237672 0.254834
-0.569899 -0.514472 0.172824
-0.064991 0.162058 0.258288
-0.387859 -0.627567 0.208450
0.120277 -0.487340 0.349734
-0.641243 0.555090 -0.391528
0.464886 0.156923 0.164544
-0.059928 -0.106796 -0.221722
0.217404 -0.678481 0.110517
-0.048282 -0.427172 0.392942
-0.428149 -0.650460 0.096805
-0.666715 0.382519 -0.135576
-0.050967 -0.065004 0.329359
-0.023042 0.569639 0.204253
-0.408300 0.049113 0.071478
0.050047 -0.445494 0.412759
0.312222 -0.509992 0.281072
0.694300 0.458061 0.028439
-0.677609 -0.080030 -0.187496
0.385656 -0.502399 0.337390
-0.534748 -0.092190 -0.258495
0.475343 -0.499869 0.371918
-0.471550 0.122761 -0.297037
0.330947 0.105738 0.146082
0.053245 0.457385 -0.326640
0.694571 -0.032938 -0.182727
-0.157890 0.590008 0.089247
-0.068690 -0.695349 -0.104480
0.431806 -0.176832 -0.172642
-0.409686 0.194843 0.042194
0.684024 0.666280 -0.028026
-0.640502 0.172324 -0.319007
-0.374771 -0.088532 -0.247823
-0.563094 0.215683 0.027085
-0.282301 0.698710 -0.096880
0.442230 0.228656 -0.253103
-0.167607 0.664652 -0.242149
0.552792 -0.145933 0.179052
-0.489304 -0.264000 -0.220848
-0.023633 0.484489 -0.337548
-0.672792 0.099765 -0.174801
-0.017568 -0.463679 -0.147231
-0.659807 0.241255 -0.283068
0.334715 0.401568 0.053861
0.147646 0.565138 0.048740
0.701871 0.204790 -0.174091
0.701121 0.621125 0.008405
0.498169 0.195008 -0.242377
0.335629 0.150852 0.104604
0.274019 0.410896 -0.301591
-0.579695 -0.192970 0.107740
0.447713 0.006837 0.350521
0.332059 -0.715043 -0.047482
-0.107163 -0.192272 -0.207971
0.146762 0.550978 0.054230
-0.637096 -0.672610 -0.066209
0.231317 -0.419146 0.210850
0.560813 0.679627 0.009990
0.206173 -0.355361 0.196284
-0.349524 -0.406498 0.201366
-0.294455 -0.668769 0.036121
-0.091975 -0.114911 0.336430
-0.011885 -0.470039 0.405662
0.680215 0.129372 0.073125
0.149912 0.071489 0.106790
0.085998 0.535492 0.218864
-0.651934 0.397235 -0.319570
-0.255488 -0.079694 0.317721
-0.003393 0.602567 0.190385
-0.479865 -0.691781 -0.125584
-0.211910 -0.649301 -0.123911
0.378905 -0.466995 -0.118303
-0.348167 -0.096594 -0.244312
0.417016 0.617843 0.016415
0.542675 -0.668087 0.241938
-0.269182 -0.638236 0.197320
0.533012 0.022503 0.158272
-0.359256 -0.644378 0.144350
0.156375 -0.287176 0.312881
-0.087750 -0.541904 -0.136568
-0.179872 -0.701746 -0.103684
-0.667711 0.345977 -0.137938
-0.475485 0.671436 -0.282111
0.406278 0.424994 0.054271
-0.533624 -0.554945 0.183515
-0.712436 -0.574408 0.055173
0.362300 0.335136 -0.280126
0.599607 -0.615580 0.276443
0.294928 -0.261018 0.183717
-0.438590 -0.340021 -0.202008
-0.547306 0.441880 0.117024
-0.646592 0.181269 0.028024
0.111757 0.687902 -0.056523
-0.065673 0.434549 0.228267
0.106368 0.369295 0.094317
-0.306282 0.591856 -0.379199
-0.101196 -0.491763 0.201689
0.720788 0.605225 -0.251137
0.301853 0.318272 0.068200
0.527965 0.081842 -0.217590
-0.117147 0.636969 -0.370567
0.544132 -0.144715 -0.171066
-0.356758 -0.160896 -0.232047
0.672890 -0.121307 0.063257
0.203474 -0.461904 0.217428
0.381015 -0.657191 0.258207
-0.066975 0.640098 -0.342547
-0.071546 0.671872 -0.029233
-0.581420 0.401193 -0.011373
-0.146128 -0.659240 0.120378
0.108139 -0.674518 0.104235
-0.422049 0.446473 -0.358337
-0.109113 0.508605 -0.348471
-0.468843 0.177253 0.041500
-0.106329 0.455183 0.221237
0.028991 -0.353142 0.392763
-0.648837 -0.262183 0.116672
0.433008 -0.127072 0.376290
0.114906 0.591259 0.000203
0.353920 0.223317 0.090927
0.221979 -0.660007 0.205459
0.418213 0.650476 -0.172553
-0.380790 0.500096 0.192677
-0.219762 -0.012423 0.148781
-0.574987 0.587122 -0.397406
-0.018036 0.590318 0.124626
-0.626791 -0.392857 -0.204844
0.341824 0.604527 0.013722
-0.159017 0.660879 -0.033267
0.510625 -0.145914 0.376273
-0.405901 0.315738 -0.331004
-0.089748 -0.034533 0.320492
0.630730 -0.687965 0.162252
-0.068990 0.136857 0.178004
-0.480639 0.258728 0.024342
0.232134 -0.636028 -0.094914
0.024673 -0.506611 0.228738
0.164425 -0.293248 0.358417
-0.427603 0.493931 0.190574
0.112655 -0.691199 0.020596
-0.033696 0.347462 0.038433
0.439721 0.620146 -0.321412
0.419415 0.644200 -0.204137
-0.164203 0.663125 -0.249081
-0.271939 0.216669 -0.301614
0.358534 0.347048 0.066477
-0.513739 0.406610 0.133963
-0.337814 0.120875 0.062131
0.679412 0.022397 0.039031
-0.469689 0.666422 -0.306181
0.203054 -0.045794 -0.215191
0.438442 0.239133 -0.255472
0.015040 -0.181610 0.147862
-0.461317 -0.369775 0.361141
-0.583161 0.196220 0.029552
-0.158721 0.435289 -0.337325
-0.459173 -0.202480 -0.231021
-0.650109 0.197987 0.024426
-0.491888 -0.365706 0.202040
0.014990 0.570163 0.030232
0.525902 0.381327 0.071543
0.678454 0.016298 0.048823
-0.667764 0.177431 -0.207225
0.444764 -0.717875 -0.034622
-0.256081 -0.668109 -0.123293
-0.037697 0.154242 0.286398
-0.572058 0.599046 -0.399585
0.524684 0.656336 -0.117047
0.521498 -0.706110 0.043682
0.317229 -0.677848 0.137862
0.171721 0.173643 0.087887
0.156618 0.469480 -0.321693
-0.034020 0.290370 0.049844
0.088507 -0.187834 -0.194911
0.698548 0.146356 -0.155611
-0.364209 -0.397980 0.284829
0.358749 -0.190248 -0.175163
0.508676 -0.581892 0.263215
0.043204 -0.129921 0.139518
-0.575207 0.605826 -0.051911
0.132455 -0.680724 -0.093069
0.446300 -0.244203 0.400695
-0.517921 0.410075 0.150555
0.044461 0.527550 -0.341317
-0.019223 0.614816 -0.363333
-0.499926 0.057869 -0.286064
-0.589805 0.670663 -0.065936
0.053970 -0.631819 0.240799
-0.382091 0.321051 -0.330370
0.592025 0.428441 -0.282435
0.106212 0.224747 -0.276274
-0.454175 0.667311 -0.297911
0.366730 0.106284 -0.233979
0.534873 0.638814 -0.203591
0.556583 0.059078 0.138266
0.596272 0.285697 0.095711
-0.418434 -0.674128 -0.021065
-0.548991 -0.216667 0.114675
-0.694816 -0.549013 -0.160910
0.336017 0.389535 -0.292893
0.593714 0.341310 -0.264865
0.039210 0.066815 0.182465
0.365220 0.060648 -0.224947
-0.040081 -0.468644 -0.147841
-0.611403 -0.107999 -0.260794
0.677137 0.477348 -0.286162
-0.469559 0.705626 -0.107014
-0.266390 -0.616984 -0.134267
-0.023517 0.657610 -0.243089
0.309437 0.562983 0.019733
-0.104653 0.325708 0.037732
-0.324012 0.305119 -0.323040
0.392410 0.161986 0.315508
-0.066172 -0.278848 0.161546
-0.162337 0.373545 0.050954
0.698588 0.190062 -0.137984
0.340808 0.297900 -0.274201
0.441667 -0.438524 0.439280
-0.156770 0.174904 -0.285040
0.170968 -0.705562 -0.038264
0.063462 0.289278 0.057012
0.329410 -0.644032 0.262880
-0.643971 -0.274939 0.119574
0.617771 0.511744 0.051975
0.278728 0.256169 0.078988
0.451914 -0.721745 -0.062081
0.100158 -0.662742 -0.098973
0.576020 -0.045931 0.160681
0.440463 -0.165138 0.384445
-0.220567 -0.013844 0.146291
-0.248145 -0.045652 -0.247384
0.442461 -0.490813 0.409968
-0.643280 0.362548 -0.357300
0.304110 0.511114 -0.319516
-0.675430 -0.150133 -0.244635
0.319219 0.048599 0.273202
-0.166042 -0.235571 0.196732
-0.410384 0.466275 0.197340
0.237128 0.149750 0.097335
0.665654 0.038736 0.150115
-0.032321 0.571869 0.203145
-0.020455 0.125532 0.125504
-0.628887 -0.636640 0.118478
0.420719 0.170178 0.221197
0.260084 -0.701076 0.006062
0.332258 0.486786 0.036619
0.687478 0.644728 -0.136662
0.361479 0.644707 -0.215566
-0.471796 0.379245 0.005107
0.320057 0.629633 0.007142
-0.696946 -0.606730 -0.157476
-0.578795 0.693352 -0.195764
0.328454 0.180006 0.248813
-0.664169 0.287543 -0.207750
0.692800 0.194777 -0.061590
0.495204 -0.156234 -0.172247
0.705297 0.187807 -0.225205
0.545237 -0.297512 0.208870
0.378798 -0.676797 0.158083
-0.718851 -0.557313 0.144771
-0.547862 0.541237 0.165435
0.153823 -0.652389 -0.097221
0.355879 -0.591168 -0.095077
0.550850 0.677744 -0.001983
-0.629214 -0.649255 -0.153669
-0.152773 0.687529 -0.122362
-0.639547 -0.687690 -0.146708
0.326484 -0.489056 0.390859
0.094682 0.180475 0.081027
-0.367314 -0.654507 0.090956
-0.605903 -0.477735 -0.186356
-0.334832 -0.481790 -0.166220
-0.658499 0.678029 -0.118549
0.218346 0.217034 -0.266736
-0.143332 -0.501685 0.200672
0.329365 0.056903 0.146160
0.381251 0.668515 -0.089856
-0.577125 -0.083243 -0.263308
0.091123 0.002061 -0.232754
0.273505 -0.177635 0.165492
0.477975 0.249650 0.094497
0.466544 0.249529 -0.255550
-0.701082 -0.353581 0.000822
-0.352909 0.190818 0.047048
0.419059 -0.518537 0.263489
-0.635660 -0.521668 -0.179679
-0.403435 0.168198 -0.301281
-0.658040 -0.188214 0.101203
-0.202270 -0.654620 0.130272
-0.046188 0.383014 0.127128
0.092849 -0.336480 0.393978
0.119942 -0.476845 0.402959
-0.205226 0.214208 0.052892
0.550730 -0.493535 0.248518
-0.626596 -0.152677 0.096327
0.549595 0.011664 -0.201994
-0.566654 -0.673932 -0.055901
0.306954 0.465920 -0.310263
0.079008 0.263356 0.063311
-0.466228 -0.424288 0.162154
-0.139922 0.083921 0.228989
0.527945 -0.680329 0.176196
-0.029145 -0.072103 -0.226475
-0.072436 0.041766 -0.252365
-0.143308 -0.053166 0.320405
0.572862 -0.537855 0.258971
-0.224030 -0.493482 0.193277
0.198885 0.119863 0.100594
0.563550 0.481130 0.054240
0.171249 -0.122519 0.147164
0.058853 -0.485284 0.345326
0.047828 0.621751 -0.010686
-0.361741 -0.437004 -0.177108
0.705645 0.596175 -0.060131
0.630474 -0.611730 0.277873
0.259165 0.328572 -0.286163
-0.102093 -0.657271 0.141025
-0.030904 -0.384220 0.185163
-0.505641 0.691240 -0.188809
0.212578 -0.414445 -0.140684
0.337807 0.157177 0.312578
-0.072085 -0.186158 -0.206695
-0.479983 -0.637578 0.149706
-0.056295 -0.258773 -0.191027
-0.131577 -0.468523 -0.154388
0.281746 0.686453 -0.022797
-0.225943 -0.695355 -0.082357
-0.669309 -0.361704 -0.214113
-0.006897 0.107645 0.297925
-0.307176 0.449634 -0.350781
-0.654304 0.285586 0.006583
0.050658 0.689218 -0.064611
-0.279435 -0.211433 0.342397
-0.033779 -0.311058 0.170306
-0.701507 -0.648510 -0.116158
0.292048 -0.130982 0.157470
-0.614289 -0.622992 -0.157864
-0.352919 -0.412215 0.191893
0.642037 -0.585646 0.267281
-0.019248 -0.283983 0.286652
-0.022980 0.373540 0.084616
-0.239987 -0.586540 -0.138481
0.658085 -0.298384 0.180144
0.146267 -0.445056 0.419530
0.306858 0.403665 0.051455
-0.213553 0.599642 0.124727
-0.505707 0.675130 -0.270655
0.521969 -0.594962 -0.082477
0.511430 0.234449 -0.249330
-0.028110 0.140420 0.178565
-0.526311 -0.671888 -0.035763
0.684756 -0.039236 -0.055290
0.447009 0.674275 -0.044705
0.484323 0.000299 -0.204371
-0.586623 -0.653869 0.041185
-0.321310 -0.108215 0.109186
0.249224 -0.633623 0.255079
0.254780 0.644904 -0.240357
-0.530135 -0.632489 0.163437
-0.371780 0.388415 -0.343126
-0.695331 -0.058421 0.049401
0.329651 -0.234696 0.390476
0.703912 0.204548 -0.200446
0.461322 -0.417241 0.436419
-0.140873 -0.356063 -0.177572
0.654380 -0.336500 0.211976
-0.490929 0.057959 -0.285441
-0.398627 -0.323495 -0.202469
-0.083857 0.441171 -0.333166
-0.012731 -0.303511 0.189036
-0.211203 0.306156 -0.315205
-0.595577 0.003387 0.067285
0.192813 -0.289543 -0.167106
0.618305 0.197111 -0.234234
0.307588 0.205909 -0.258146
0.002258 0.099611 0.300186
0.373267 0.674457 0.001959
0.022243 -0.078833 -0.221464
-0.042555 0.259137 0.055490
0.197394 0.048559 -0.234490
0.530681 0.021112 -0.205234
-0.456492 0.103215 -0.292049
0.313656 0.201167 -0.256764
0.589600 0.150399 0.122331
-0.306178 0.190443 0.050454
0.260861 0.637799 0.001287
-0.040234 -0.362848 0.316140
0.435653 -0.718391 -0.039449
-0.217757 -0.257955 0.294579
-0.582313 -0.290868 -0.222098
0.501021 -0.360963 0.410516
-0.060721 -0.697347 -0.052540
0.307786 -0.182755 0.168961
0.658213 0.675546 0.022054
-0.419515 0.633088 -0.046271
0.319707 -0.072129 0.357210
0.332405 0.129385 0.108205
-0.286380 0.595730 0.087251
-0.431172 0.276118 -0.324871
-0.342059 0.076816 -0.278605
-0.163084 0.167968 0.065156
0.026761 -0.493565 0.295505
0.454328 0.667842 -0.075613
0.649106 0.418404 -0.276356
0.631552 0.641053 0.027061
0.450480 -0.509715 -0.104645
-0.497006 0.546511 0.175097
-0.709418 -0.361699 0.104672
-0.653722 -0.158347 -0.253728
-0.682763 -0.236006 -0.185964
0.128772 0.373445 -0.304445
-0.586507 0.321321 0.004260
-0.469559 -0.636223 0.159111
0.664935 -0.575161 -0.022857
-0.377155 -0.358160 -0.193996
0.474395 -0.712911 -0.002245
-0.648658 0.663168 -0.251290
0.332182 -0.679699 0.132077
-0.240470 -0.301811 0.210195
-0.540536 -0.274314 0.295135
0.167918 -0.394174 0.271590
-0.141134 0.586423 0.075087
-0.156774 0.225225 0.054139
-0.524249 -0.194284 -0.237301
-0.688934 -0.104408 -0.051961
-0.505322 0.672647 -0.283173
-0.580381 -0.405700 0.150294
-0.657527 0.263994 -0.302951
0.676570 0.167292 0.125148
-0.138872 -0.172738 0.336496
-0.150588 -0.480578 -0.153329
0.295004 0.116952 -0.241228
-0.237246 0.601142 -0.376137
-0.460641 0.147630 0.048017
0.052494 -0.487769 0.331170
0.228902 -0.048039 -0.212899
0.289208 -0.674978 0.145669
0.691637 0.283225 -0.009909
0.025845 0.077718 0.151242
0.653923 -0.538553 0.133967
-0.643551 0.515847 -0.378139
-0.666815 -0.016367 0.066162
0.539703 -0.293212 -0.141643
-0.277345 -0.560504 -0.146359
-0.422417 -0.194558 -0.229987
-0.546160 0.415071 0.169104
-0.073012 0.581492 -0.011237
-0.022509 0.467303 -0.334026
0.371008 -0.589491 -0.094334
-0.233169 -0.020587 0.165312
-0.331923 0.617391 -0.386141
-0.683220 -0.018460 -0.089767
-0.390474 0.399571 0.128007
0.350419 -0.625486 -0.088593
-0.021657 0.371238 0.073241
-0.217631 -0.020309 -0.250284
-0.297626 -0.303661 0.359570
0.397953 -0.682630 0.133086
0.514258 0.168408 0.234816
0.451562 -0.351035 0.422465
-0.350322 0.340937 0.017169
-0.204672 -0.398624 0.175660
0.337591 0.640076 -0.244867
-0.528696 0.648143 -0.057070
-0.188692 0.398328 0.170468
0.325900 0.111704 0.213477
-0.437510 0.396276 0.099899
-0.435300 0.389520 0.066118
0.327399 0.091191 0.185679
0.086630 -0.298839 0.385997
0.615657 0.061736 0.141945
-0.182846 0.394543 0.152656
-0.546280 0.426951 0.097629
0.315576 0.131247 -0.242625
0.706598 0.392357 -0.157017
0.004594 0.147898 -0.268128
0.131992 -0.536085 0.227188
-0.175237 0.486694 -0.348797
0.036709 -0.207184 0.154529
-0.028578 0.130897 0.096168
-0.424710 -0.532919 -0.162388
-0.346790 0.305555 -0.324751
0.157951 -0.593888 0.240615
0.014366 -0.264364 -0.184870
-0.318975 -0.508514 0.189519
0.020850 -0.054783 0.217027
-0.449918 0.602231 0.080742
-0.355015 -0.039936 -0.256147
-0.252343 0.205624 0.051252
-0.385202 -0.047560 0.092484
-0.434710 -0.608404 0.201273
0.510120 -0.423547 0.267496
0.187293 0.658278 -0.188742
0.400807 -0.644246 -0.081245
-0.248786 0.526704 0.196758
0.026596 -0.631775 -0.110418
0.056126 -0.040463 0.146734
0.274177 0.460454 0.037752
-0.333386 -0.102950 0.316825
-0.143646 -0.648191 0.177099
-0.083194 -0.674349 0.058843
0.020176 0.390936 0.183409
-0.418911 -0.409059 -0.186780
-0.025241 -0.432215 0.404732
0.310501 -0.047547 0.345404
-0.302347 -0.070988 0.312637
-0.689682 -0.098291 -0.039804
-0.184437 0.596886 0.117764
0.170333 0.686342 -0.050288
0.210669 -0.393508 0.204244
-0.278151 -0.071101 -0.244426
-0.020544 0.520589 0.214254
0.258071 0.117087 0.105369
0.471901 -0.499753 0.371676
-0.069828 -0.667341 0.097670
-0.483728 -0.405376 0.157119
-0.576142 -0.665777 -0.016770
0.677464 0.126573 0.107340
0.364599 0.456083 -0.304183
-0.252582 0.015242 -0.259895
0.165947 -0.325875 0.325303
-0.551139 -0.141119 0.099392
-0.679799 0.216562 -0.036190
-0.398057 0.377955 0.016374
-0.324876 0.397032 -0.341508
0.301659 -0.078548 -0.201602
0.043756 0.280418 -0.291876
0.021603 -0.015819 0.324682
0.669172 -0.030089 0.148942
0.304737 0.659740 -0.152924
0.074809 -0.575128 0.230931
0.703544 0.636882 -0.016214
-0.609870 -0.354542 -0.211311
0.371830 0.365429 -0.285513
-0.099890 0.655555 -0.271990
0.257960 -0.664767 0.189982
-0.672969 -0.103176 -0.256782
0.273772 0.634113 -0.290580
0.662982 0.017239 -0.195027
-0.161654 0.022823 -0.254931
-0.377766 -0.026246 -0.260511
0.557843 0.026294 0.144921
0.555860 0.654199 -0.120369
0.437884 0.509227 0.039655
0.041217 0.667129 -0.179093
0.692745 0.190008 -0.062855
-0.708330 -0.557865 0.009225
-0.499689 -0.241293 -0.226136
0.235414 0.680602 -0.063715
-0.128010 -0.062416 0.323348
-0.622386 -0.003198 -0.282565
-0.229068 0.506057 -0.356512
-0.687855 0.076610 0.009312
-0.016420 0.538703 -0.347891
-0.523399 -0.669003 -0.020405
0.237745 0.659238 -0.171669
0.456768 -0.314155 0.415450
0.269626 -0.120278 -0.195529
-0.044689 -0.673913 0.070366
-0.715759 -0.633067 0.115627
0.297404 0.175137 -0.252710
0.173729 -0.385764 0.200351
0.040380 0.481564 -0.332399
0.205663 0.659011 -0.180576
0.525941 -0.101011 0.197930
-0.539260 0.525177 0.176357
0.400455 -0.282800 0.405156
0.275751 0.610551 -0.341452
-0.013818 0.132145 0.239742
-0.680006 -0.669087 -0.058688
-0.179096 -0.387052 0.175166
-0.407166 0.645763 -0.396000
0.045009 0.642209 -0.304752
-0.682889 -0.634211 0.117762
-0.318070 0.492975 0.198574
-0.285467 0.492452 -0.357808
0.041838 -0.300857 -0.175603
0.030290 -0.222197 0.157078
0.574304 -0.193882 0.190188
0.544427 0.666111 -0.062627
-0.177609 -0.227756 0.266610
-0.050620 -0.068206 0.330025
-0.509699 0.610736 -0.397481
0.590986 0.268946 0.098689
0.265656 -0.409585 0.211383
-0.459378 0.392311 0.074474
0.175514 -0.703304 -0.025695
0.534394 0.564551 0.035455
0.711402 0.414870 -0.209450
0.629790 -0.295311 -0.134800
0.270117 0.433932 0.042774
-0.673446 -0.308218 0.124137
-0.315941 -0.675020 -0.000825
0.666508 0.347046 0.088432
0.136185 -0.118967 0.143953
-0.698825 -0.110119 0.072881
0.145461 -0.494437 0.319770
0.237823 -0.676835 0.123815
-0.167330 0.055390 0.087399
-0.670015 0.150554 -0.189430
-0.330296 -0.382375 0.224128
-0.103468 0.180446 -0.282350
-0.569770 0.334259 -0.346395
-0.257184 -0.444335 0.181071
-0.301254 -0.083515 0.168896
-0.594616 -0.029363 -0.275345
-0.301694 -0.062030 0.250863
0.428853 0.186283 0.304968
0.481511 -0.173017 -0.169862
-0.527393 -0.477355 0.168421
-0.288468 0.461463 -0.351816
0.178787 -0.260724 0.175379
0.387433 0.573416 -0.326053
-0.449223 -0.119430 -0.246943
0.065789 0.687467 -0.069847
-0.091555 -0.158583 0.223290
0.454637 -0.427284 -0.120857
-0.630429 0.014699 -0.286722
0.004639 -0.493583 0.290070
0.232071 -0.686658 0.072528
0.190733 0.066033 0.110793
0.646812 0.489011 -0.290659
-0.035631 0.698109 -0.040306
-0.505074 0.245489 0.025252
-0.582591 -0.549848 -0.170253
-0.358878 0.313110 0.022132
0.591982 -0.704358 0.069620
0.369392 0.684758 -0.010220
-0.557379 -0.486642 0.168143
-0.623391 0.363743 -0.356122
0.081178 0.027407 0.110718
-0.458081 -0.154839 -0.240483
-0.024084 -0.326644 0.383673
-0.629751 0.505456 -0.035698
0.693351 0.536213 -0.296795
-0.282190 0.331647 0.023886
-0.593578 -0.125820 0.093303
0.106999 -0.245132 0.167139
0.353177 -0.049749 0.355114
0.057911 0.014878 0.321123
0.496798 0.682101 0.007080
-0.320221 0.273129 0.032894
0.016482 0.442665 -0.326312
0.354410 0.176676 0.238174
0.296164 -0.696526 0.037895
0.330308 0.130269 0.317433
-0.570565 -0.553407 -0.168683
0.489655 -0.255279 0.406004
-0.598233 -0.652193 0.046889
0.299267 0.040920 0.123559
-0.378312 -0.634686 0.188974
-0.124429 -0.677069 0.035060
0.124175 0.560909 -0.342315
0.299902 0.215355 0.088671
0.557561 -0.190587 -0.160922
0.453913 0.324714 0.077749
-0.111089 -0.158193 -0.215076
-0.375146 -0.386511 0.366172
0.021976 -0.647806 0.219089
0.266382 -0.533452 0.236241
-0.045890 -0.329893 -0.176042
-0.305680 -0.147830 -0.231023
-0.204383 -0.297068 -0.193915
-0.263182 0.193186 -0.296287
-0.143498 -0.199265 0.253448
0.695899 0.274078 -0.068513
-0.108099 -0.147594 0.322530
-0.035091 0.524299 -0.346337
0.508171 0.099950 0.336184
0.623714 -0.309424 -0.132407
-0.192977 0.394302 0.148979
0.371133 -0.492792 0.382678
-0.557769 -0.209595 -0.236624
-0.615931 0.329454 0.000534
0.419598 0.596437 0.020886
-0.530920 -0.325312 0.181045
0.215809 -0.451356 0.216195
0.261492 0.150392 0.098943
0.463130 -0.697489 0.073365
0.623465 0.414366 -0.277375
0.173802 -0.378534 0.202416
-0.085137 -0.674353 0.058357
-0.566046 0.373944 -0.004820
0.427629 0.162994 0.108262
0.054505 0.315117 -0.298058
-0.045996 0.555033 0.205541
-0.163567 -0.039124 0.316149
-0.000841 -0.506966 0.220767
0.213153 -0.522167 0.230187
-0.491564 -0.407042 0.156894
0.137768 -0.658184 0.194366
0.697667 0.299320 -0.080771
0.552281 -0.276059 0.205076
0.517850 0.232609 0.100753
0.682760 0.381946 0.082602
0.657328 -0.013661 0.160015
-0.511688 0.176000 -0.310560
-0.021185 0.403185 0.235626
0.079345 0.576344 -0.348602
0.221320 -0.245200 0.175302
0.329261 0.111206 0.170041
-0.563550 0.245405 0.021100
0.118140 -0.506687 0.250943
0.065831 -0.668450 -0.100277
0.177615 0.615068 -0.349352
-0.185174 -0.534663 -0.144963
0.161083 -0.661167 0.184850
0.260617 -0.555844 0.240315
-0.465244 -0.308486 -0.210224
-0.467231 0.017320 0.073644
0.583529 0.627230 -0.250668
0.216108 0.410825 -0.305705
0.079979 0.386819 0.176951
0.254278 -0.438159 -0.132962
-0.587638 0.165740 0.035337
-0.358074 -0.102725 -0.243791
-0.312183 0.586332 -0.378513
0.046061 0.424527 -0.320571
0.384836 -0.361179 -0.139071
0.383024 -0.683688 -0.074613
0.625154 0.370845 0.080718
0.401614 0.324510 -0.275195
0.291648 -0.442773 0.423793
0.454877 -0.363979 0.425293
-0.459230 -0.685659 -0.089499
-0.546228 0.460669 0.110964
0.067013 -0.308509 0.182921
0.127597 0.679881 -0.093440
-0.453927 -0.288286 0.345349
-0.130207 0.465320 -0.341306
-0.020749 0.511664 -0.342785
0.572445 0.553838 -0.308943
-0.047756 0.300480 -0.302417
0.276701 -0.681516 0.109434
-0.577370 0.682236 -0.067367
-0.324728 0.378094 0.034807
-0.374192 -0.174589 -0.230548
0.119548 0.474982 0.233374
0.267081 0.526246 0.024071
-0.419339 0.389655 0.070662
-0.067206 -0.553565 0.216489
-0.189574 -0.308234 0.158634
0.498452 0.160866 0.113737
-0.234402 -0.225372 -0.210413
0.685084 0.027389 -0.031845
-0.175332 0.592016 0.095227
-0.510666 -0.070011 -0.261220
0.515188 -0.339201 0.237339
0.435530 -0.039251 -0.199929
-0.500272 0.416209 0.185979
-0.696145 -0.135459 0.027881
0.073121 0.575175 0.209999
-0.422682 0.601718 -0.040215
0.159146 0.692944 -0.019462
0.301078 -0.093666 -0.198616
-0.071500 -0.119256 0.300057
-0.022328 -0.646080 -0.111041
-0.541321 0.425628 0.033308
-0.691247 -0.326251 0.126480
-0.497322 0.034425 -0.281184
-0.438586 0.143076 0.050501
0.132671 0.589407 0.156428
0.685639 0.048138 -0.030369
