0.100653 -0.561037 -0.265451
-0.508107 0.123433 0.111327
0.511989 -0.732407 -0.272096
0.564457 -0.486718 -0.257576
0.523889 -0.001839 0.317474
-0.101548 0.565693 0.298513
-0.127211 0.363214 0.271313
0.194802 0.174658 0.119734
-0.017115 0.699794 0.117547
-0.181537 0.587057 0.190148
-0.405659 0.699625 -0.196979
-0.176327 -0.064452 -0.239082
0.406044 0.072594 0.115515
0.446047 0.626520 -0.111281
-0.559424 -0.261598 0.225348
-0.299432 0.688829 -0.196773
-0.438869 -0.602024 -0.082322
-0.386232 -0.142764 0.224361
-0.477702 -0.549572 -0.269289
-0.020164 -0.006014 -0.234511
0.759597 0.503838 0.143033
0.593248 0.395497 0.135517
0.582161 0.179468 0.123023
0.445425 0.629529 -0.160403
0.538633 0.597625 0.084891
0.225831 0.658802 0.040939
0.273881 -0.489221 0.287536
-0.446963 0.428282 0.183384
0.150713 -0.607231 -0.267715
-0.163114 -0.656373 -0.036477
-0.251442 0.598143 0.224232
-0.056044 0.117648 -0.227687
-0.061010 0.353497 0.225752
-0.415688 0.286489 -0.220786
-0.378273 0.721938 -0.195484
0.090178 -0.425706 0.289756
0.614861 -0.403069 0.089818
0.700581 0.319219 -0.210226
-0.555029 0.768276 0.104153
0.259478 0.658776 -0.065628
-0.418257 0.079066 0.109477
0.610716 0.593614 -0.076244
-0.549839 0.534321 0.134603
-0.603419 0.339019 -0.219229
0.039596 -0.059234 -0.237103
-0.180728 0.501812 0.340924
0.033374 0.152579 0.117211
-0.665612 -0.016227 0.102080
-0.008763 -0.296760 0.091075
0.028967 0.078359 0.112914
0.744361 0.469538 0.140945
-0.795374 -0.539079 -0.017299
-0.380839 -0.023154 0.103897
-0.141168 0.580903 0.166240
0.059818 -0.363041 0.185247
-0.429144 -0.595092 -0.230955
0.330502 0.101440 -0.225613
-0.238457 -0.118715 -0.242682
0.537434 0.387518 0.134625
-0.506502 0.736047 0.146526
0.441997 0.609646 0.146641
0.436558 0.244756 -0.216556
-0.056735 -0.085818 0.308136
0.780506 0.563198 -0.099780
0.722817 0.278312 0.129794
-0.514762 -0.231181 0.229456
0.167767 0.019390 0.110606
0.352523 -0.306397 -0.248867
0.419311 0.635277 -0.174952
0.495249 0.562398 -0.197856
0.659329 0.490088 0.141464
-0.285167 0.347741 -0.216253
0.138667 0.520061 0.309356
-0.404829 0.654880 -0.199542
0.778762 0.538021 0.145146
0.184344 -0.147457 0.101152
0.682660 0.171574 0.123351
-0.115742 -0.478465 0.079806
0.441842 -0.251213 -0.245002
0.159266 0.227352 0.122485
-0.712976 -0.359757 -0.260216
0.530885 -0.115127 0.112676
-0.158748 0.290594 0.123645
-0.058964 -0.167248 0.227394
-0.449192 0.728149 -0.195679
0.535732 -0.567991 0.079730
0.320024 -0.573786 0.283038
-0.742247 -0.536092 -0.236974
0.158921 0.519672 0.251555
-0.188238 -0.257247 0.253060
-0.694847 -0.479648 0.075235
0.712798 0.189380 -0.217589
-0.173337 0.614190 -0.200079
0.290448 -0.239232 -0.245491
0.066839 -0.694913 -0.113414
-0.634671 -0.339283 -0.258431
0.025130 -0.521440 -0.263764
-0.537536 -0.332815 0.171877
-0.609476 0.432118 0.128269
-0.105754 -0.168709 0.302994
0.588392 -0.196022 0.101504
-0.567065 0.543934 -0.207176
0.166006 0.591297 -0.198756
-0.319229 0.731970 -0.194449
0.115486 -0.701697 -0.152933
0.231349 0.329096 -0.213308
0.302312 -0.282610 0.299624
0.665184 0.355188 0.133761
-0.326486 0.037234 0.107788
0.656503 0.589198 -0.146891
0.011991 0.337457 0.265951
0.122357 -0.539761 0.078137
0.350451 0.094783 0.116357
0.018218 -0.264609 -0.249066
0.254844 -0.609779 0.280463
-0.030560 0.555322 0.248839
-0.601335 -0.561526 -0.253268
-0.142919 -0.589456 0.073220
0.640576 0.265020 -0.213806
0.168432 0.281835 0.125685
-0.274640 -0.631930 -0.096821
0.412471 0.057454 0.199806
-0.290904 0.556931 0.343233
0.355171 -0.747389 -0.139373
-0.512060 -0.034006 0.102253
0.078890 -0.243993 0.094787
0.292779 -0.179937 -0.242068
-0.391034 0.208245 -0.225088
0.352783 -0.283760 -0.247564
-0.055076 -0.166568 0.265525
-0.532261 0.201588 -0.226569
-0.453354 -0.495661 0.076193
-0.090283 -0.218968 -0.247288
-0.021446 0.711477 -0.067048
-0.124737 -0.211269 0.206496
-0.344332 -0.056994 0.102237
0.308325 -0.615185 0.129392
-0.341211 -0.386310 0.083346
0.628060 0.126767 0.120353
0.250293 0.216219 0.122553
-0.456064 -0.186266 0.140054
-0.196563 0.035627 0.108706
0.380281 0.633373 -0.018483
-0.332265 0.291288 -0.219862
-0.329552 -0.611359 -0.271474
-0.205435 -0.224134 -0.248480
0.598129 0.584540 0.117848
0.040848 -0.572836 0.260987
0.665161 0.577646 0.021729
0.221187 -0.717163 -0.226482
0.197705 0.517131 -0.202769
-0.097516 0.098114 -0.229132
-0.388411 -0.139265 0.128518
-0.490456 -0.000109 0.104368
0.478585 0.623961 -0.171314
-0.375551 0.163329 0.114649
0.204731 0.152286 0.118527
0.138461 -0.477889 0.081816
-0.242076 -0.118672 -0.242708
0.010499 0.343905 0.161208
0.272096 0.277053 -0.215980
0.234096 0.285093 0.126383
-0.489447 -0.256477 -0.252546
0.353103 -0.482584 0.288533
0.077280 -0.071909 0.190993
-0.038896 0.683651 -0.195044
0.592805 0.102044 -0.223538
0.273292 0.644082 0.139931
-0.076847 0.711914 0.101732
0.226086 -0.114911 -0.238851
-0.312880 0.367335 0.126854
0.377275 0.548984 0.142654
0.138023 -0.176972 -0.243101
-0.231176 -0.035708 -0.237857
-0.361504 0.030298 0.107117
0.194131 -0.028150 -0.234116
-0.493818 -0.358050 0.289101
0.007205 0.307435 0.125902
-0.243478 0.119722 0.113171
-0.266068 -0.633093 -0.104350
-0.201381 -0.650656 -0.011852
-0.710879 -0.507678 -0.268696
0.617028 0.185396 -0.218563
-0.172631 0.601964 0.141421
-0.445010 -0.606829 0.018801
-0.345365 0.531665 0.341358
-0.489806 0.806412 -0.189471
0.248091 0.653170 0.065778
-0.191739 -0.645061 -0.137524
-0.372587 0.753277 -0.193640
0.036385 -0.087280 -0.238739
-0.081994 -0.178330 0.136950
-0.360697 -0.613632 -0.133827
0.567487 0.590940 0.106637
0.223728 -0.419539 0.085830
0.184962 -0.171525 0.099774
-0.691519 -0.391669 0.080314
0.484444 0.200210 -0.218743
0.539356 -0.338421 -0.249253
-0.031300 -0.547833 -0.265719
0.084908 -0.428201 0.289571
0.255738 0.103959 -0.226049
0.184455 -0.499684 -0.261275
0.199449 -0.719423 -0.118975
-0.036985 0.101931 -0.228442
-0.510998 -0.190343 0.093282
0.476416 0.032109 0.319055
0.212996 -0.095112 0.104381
0.566338 0.564673 0.145025
-0.706763 -0.061460 -0.243035
0.535778 0.240113 -0.216052
0.228639 0.662893 -0.037451
-0.293620 -0.618811 -0.259227
0.203575 0.499413 0.343774
-0.554302 0.525760 -0.208121
-0.482542 -0.225188 0.296820
0.016428 0.281495 -0.217713
-0.592947 -0.577616 -0.006742
0.445718 -0.172000 -0.240423
0.148155 0.082757 -0.228104
0.486861 -0.382443 -0.252190
-0.172401 0.578884 0.299854
-0.493234 -0.590520 -0.104759
0.273968 -0.107858 0.104123
-0.279731 -0.265481 -0.251433
0.239445 0.233707 -0.218724
0.451066 0.054662 0.124461
0.285713 0.469478 -0.204822
-0.075583 -0.338701 -0.254051
0.461794 0.237799 0.125437
0.053410 -0.572175 0.209816
-0.604829 0.282131 -0.222507
0.535405 0.021185 0.318886
0.090344 -0.280909 -0.249441
0.317900 -0.734264 -0.243705
-0.418199 -0.396151 -0.260015
-0.473607 0.499741 0.133209
0.067578 0.536803 0.251172
-0.367275 0.403344 -0.213698
0.186083 -0.718379 -0.094193
0.115637 0.203347 0.120767
-0.768231 -0.456559 0.075991
-0.499254 0.068781 0.108257
0.269814 -0.376768 -0.253552
0.489223 0.619388 -0.127501
0.104679 -0.370553 0.170135
-0.695799 -0.245058 0.088702
-0.573280 0.349127 -0.218414
0.571342 -0.453257 -0.255600
-0.031350 -0.351588 0.280717
0.426144 -0.463512 0.290197
-0.451839 -0.123198 0.097598
0.116102 -0.698985 -0.200940
0.082892 0.309019 -0.215615
-0.027753 -0.553939 -0.266042
0.059442 0.497884 0.342565
-0.307123 0.265952 0.121075
0.030815 0.247017 -0.219581
-0.157788 0.579189 0.248206
0.563713 -0.680257 -0.036415
-0.342689 -0.110989 0.187669
0.724418 0.180407 -0.153524
0.389999 0.352314 -0.210741
-0.360015 -0.124147 0.212136
0.049452 -0.140541 -0.241697
0.121557 0.688321 -0.128666
0.362476 0.630472 0.087401
-0.660121 -0.375476 0.081489
-0.143501 -0.421805 -0.259352
-0.303275 -0.600712 0.071326
0.710777 0.365213 0.134691
0.329043 -0.246009 -0.245581
0.029333 0.040437 0.304384
-0.331983 0.771128 -0.092295
-0.396768 0.177262 0.115284
-0.324183 0.757215 0.119142
0.036018 -0.490720 0.285600
-0.487466 -0.433098 0.079522
-0.304525 0.205708 0.117635
0.223780 -0.728844 -0.036396
0.439995 -0.602277 0.203133
0.402558 0.060822 0.174147
-0.529332 0.304483 0.121561
0.118305 -0.088836 -0.238192
-0.075416 -0.531554 0.282389
0.155671 -0.197409 0.098060
-0.046937 0.647127 -0.197205
0.467849 -0.779981 0.055678
-0.676984 0.027690 0.104514
0.045048 0.688123 0.118022
-0.595045 0.155873 -0.229683
-0.212505 -0.368524 0.085368
0.490269 -0.078781 -0.234722
-0.285287 -0.115473 0.304655
0.584995 0.224759 0.125646
0.144660 0.014642 0.110154
-0.044540 -0.032391 0.311299
0.282508 -0.036218 -0.233893
-0.493791 -0.560900 -0.270065
-0.289123 0.637939 -0.199616
-0.070161 0.018267 0.314010
-0.519161 0.681924 0.143319
0.366626 -0.624286 0.098501
0.614639 -0.405429 -0.205290
-0.291949 0.757345 0.014410
0.010329 0.607834 0.143181
-0.070813 -0.663775 -0.204342
-0.588332 -0.569145 -0.165244
0.095430 -0.698469 -0.143966
-0.600178 0.132663 0.111141
-0.507986 -0.593905 -0.000366
0.516584 -0.470674 -0.257027
0.771946 0.488196 -0.199966
-0.401288 0.771713 0.118188
-0.506096 0.203730 -0.226242
0.048488 0.101015 0.114367
0.385162 0.210453 -0.218926
0.092559 -0.185012 -0.243916
0.715479 0.548734 -0.196928
0.324393 -0.624815 0.241808
-0.103290 0.007459 0.313131
0.486244 0.397022 0.134773
-0.460302 0.660072 0.142522
0.123714 0.205699 0.120965
-0.021836 0.186523 -0.223465
0.102509 -0.709097 0.013993
0.171457 0.389046 0.337185
0.457475 0.435175 0.136740
0.438371 -0.011166 -0.231242
0.502204 0.606877 0.043645
-0.174854 -0.600542 -0.269862
0.167703 0.638995 -0.196003
0.228697 0.076873 -0.227815
-0.640946 -0.396346 -0.261758
0.543923 -0.785744 -0.053398
0.418170 -0.321498 -0.249224
-0.397493 0.685799 0.144488
-0.478780 0.795115 -0.032724
0.284662 0.661018 -0.183794
-0.237594 -0.292575 0.281440
0.459159 0.389181 0.134112
0.533917 -0.777170 -0.202167
0.091716 -0.583175 0.274759
0.610489 -0.172735 0.103013
-0.309481 0.255870 -0.221719
-0.092518 0.105485 -0.228670
-0.105752 -0.667693 -0.026698
0.384759 -0.073349 -0.235230
0.311521 0.565563 0.143095
0.027269 0.704406 -0.101922
0.521606 -0.555091 0.080361
-0.671379 -0.298685 0.085812
-0.539115 0.401173 -0.215159
-0.036233 0.417418 -0.210315
-0.422119 -0.531678 -0.267829
0.153183 -0.261371 -0.247830
-0.699721 -0.001601 -0.106756
0.226323 -0.722842 -0.146397
0.330215 -0.075919 0.289785
0.337905 0.255418 0.125486
-0.152987 0.734806 -0.044821
0.188054 0.358793 -0.211939
-0.733546 -0.450934 0.076584
-0.611819 0.105908 -0.232683
-0.652007 0.239297 0.116863
-0.494894 0.708002 -0.197191
-0.600841 -0.435505 0.078502
-0.226087 0.483874 -0.207975
-0.318152 -0.614445 -0.255329
-0.023750 0.105330 0.234168
0.620491 -0.376724 -0.043327
-0.197112 0.209601 0.118694
0.235575 -0.736243 0.051721
-0.202972 0.375905 0.296760
-0.398109 -0.243580 0.296420
0.559366 -0.199410 -0.241113
0.537340 0.322756 0.130904
-0.265478 0.025416 0.107583
-0.567198 -0.031494 0.101969
-0.493383 0.456961 0.130598
-0.402728 0.691044 -0.197449
0.315641 -0.381682 0.294037
0.562010 -0.579536 -0.262926
-0.016870 -0.353793 0.272114
-0.351857 -0.308103 0.293074
-0.001246 -0.347547 0.116363
-0.411227 -0.405287 0.159122
-0.297014 0.166903 0.115465
-0.372161 0.705359 0.145808
0.717120 0.480097 0.141339
0.063309 0.545045 -0.202211
0.342507 -0.752803 -0.007162
-0.609454 -0.107159 0.097294
-0.385953 -0.142241 0.217985
0.195572 -0.714449 -0.191101
-0.249670 -0.641676 -0.010758
-0.158881 -0.007037 0.311866
0.021679 -0.098689 -0.239509
-0.490591 -0.425914 -0.262287
0.625528 -0.286318 -0.245591
-0.019703 -0.034012 0.311399
-0.505292 -0.512865 0.074801
-0.375218 -0.396278 -0.259688
0.413241 -0.444614 -0.256333
0.354585 0.018054 -0.230215
0.250977 0.115959 0.116800
-0.177675 -0.058669 0.308755
-0.192476 -0.183252 0.301484
-0.006993 0.101140 0.194690
0.200430 -0.027791 0.108150
0.090822 0.397052 0.337018
0.541313 -0.786713 -0.063659
-0.395400 -0.044525 -0.239641
-0.421283 0.136810 -0.229427
0.161990 -0.368118 -0.253893
-0.092192 0.061898 0.166835
0.221453 0.273784 0.125635
0.081493 0.029865 0.110537
-0.546110 0.815291 -0.161171
-0.246583 -0.640727 -0.036680
0.312912 -0.167567 0.238227
-0.197788 -0.463667 0.080018
-0.257624 0.749664 0.035678
-0.604281 0.327437 0.122296
-0.244465 -0.637593 -0.096643
-0.330389 0.606325 0.336376
-0.796630 -0.522209 0.065048
0.534078 -0.012569 -0.230578
-0.085685 -0.673978 0.016194
-0.120456 -0.662707 -0.064599
-0.725320 -0.323842 -0.258249
0.648933 -0.188782 -0.239806
-0.184625 0.242958 0.120707
0.521210 -0.526008 -0.260169
0.540497 -0.326073 -0.248535
0.273069 0.663192 -0.183847
-0.667190 -0.279373 -0.255243
0.067108 -0.094157 -0.238895
-0.424783 0.306219 0.122473
0.348626 0.647885 -0.164226
-0.379447 0.183846 0.115797
0.517775 0.600621 0.100350
0.223893 -0.677971 -0.271209
0.642650 -0.255559 -0.216557
0.573565 0.594286 0.030485
0.500895 0.519974 0.141949
-0.174043 0.598849 0.141231
-0.328444 0.048087 -0.233801
0.505992 -0.498768 0.083474
-0.027303 0.091623 -0.228959
0.022745 0.468586 -0.206918
-0.595470 0.555433 -0.101880
-0.046955 -0.161911 0.303841
0.286650 0.644747 0.086159
-0.435776 0.082733 0.109551
-0.284409 -0.319844 0.188562
-0.396183 0.420836 0.148321
-0.299535 0.356262 0.126322
0.373751 -0.070055 -0.235127
-0.200236 -0.384281 -0.257638
0.617252 0.300234 -0.211965
-0.243274 0.389349 0.196661
-0.028278 -0.146103 0.225499
-0.041373 0.039078 0.315429
-0.324382 -0.562753 -0.268854
-0.050479 0.111926 0.114224
-0.207872 0.006988 0.106973
-0.312955 -0.506141 0.076683
0.470850 -0.774702 -0.043509
0.750726 0.319472 -0.057497
0.478163 -0.782121 0.059209
-0.691609 0.041236 -0.074519
0.686041 0.241275 0.127380
0.504069 -0.388229 0.089808
-0.097855 -0.610339 -0.269826
-0.222956 0.167833 -0.226103
-0.283917 -0.068171 0.139504
0.266567 0.362209 -0.211132
-0.129526 0.576889 0.197380
-0.618061 -0.569264 -0.068677
0.384748 0.638733 -0.123702
-0.110704 -0.070943 -0.238945
-0.574124 0.227890 0.116813
-0.416728 0.420429 0.220565
-0.453027 0.047556 -0.234800
-0.240620 -0.265937 -0.251155
-0.521141 -0.202677 0.092494
-0.596313 -0.141812 0.095406
-0.447809 -0.429287 0.138216
-0.112956 0.130482 -0.227393
0.502448 -0.107535 -0.236279
-0.434397 -0.420508 -0.261540
0.046420 0.021798 0.211896
0.270022 0.638213 -0.195252
-0.393133 0.416599 0.210563
-0.711077 -0.555169 -0.012186
0.205242 -0.356737 -0.252903
-0.304441 0.299295 -0.219185
0.495672 -0.043709 0.314850
0.585517 0.363220 0.133603
-0.528794 -0.592368 0.039719
-0.054333 -0.549374 0.165311
-0.268038 0.700608 -0.195852
0.345205 -0.695381 -0.271266
-0.008934 0.100211 0.249466
-0.666382 -0.563794 -0.007895
-0.779899 -0.532302 -0.181596
-0.557233 -0.569546 -0.257348
-0.153034 -0.374304 -0.256698
-0.365832 -0.619363 -0.020198
-0.123549 0.578971 0.143012
-0.292171 0.675873 -0.197460
0.250305 -0.500518 0.136199
-0.299321 -0.354564 0.085495
-0.236121 0.084831 -0.230973
0.006198 0.707122 -0.081023
0.414959 -0.638931 0.193458
-0.139488 0.298034 -0.217975
0.325787 -0.510683 0.286707
-0.057465 0.630587 -0.198237
-0.189942 -0.642061 -0.194175
-0.540029 -0.580643 -0.123647
0.563203 -0.615170 -0.264964
-0.346239 0.049295 -0.233870
0.179958 0.158752 -0.223491
0.513371 0.357243 0.132699
-0.344605 -0.115762 0.254062
0.304243 0.654104 -0.128670
-0.480823 0.131702 -0.230183
0.554719 -0.365876 0.091486
0.243406 -0.607619 0.207391
0.106012 0.036672 0.111119
-0.225129 0.413073 -0.212034
-0.074565 0.075325 0.141170
0.310657 0.096747 -0.226037
-0.039556 -0.297450 -0.251401
-0.298418 -0.623152 -0.170251
0.541051 -0.060752 0.109791
0.516219 -0.487201 -0.257979
-0.688592 -0.117796 0.096068
-0.161339 -0.030690 0.310489
-0.278895 -0.226044 -0.249161
0.347709 -0.612715 0.281017
-0.214274 -0.332182 0.087442
-0.622740 0.182790 -0.228352
-0.063211 0.709501 0.099339
-0.570956 -0.439944 0.078479
0.150547 -0.565032 -0.265292
-0.179354 -0.246046 0.297979
-0.517317 0.803919 -0.059656
-0.361735 -0.385201 -0.258947
-0.157360 0.583858 0.167575
0.313359 0.649887 -0.086057
0.437897 0.403041 0.134742
0.131711 -0.500709 0.080453
-0.440657 0.515452 -0.207829
-0.336298 0.070293 0.109610
0.192419 0.515566 0.214733
0.050169 -0.692088 -0.108360
0.496500 -0.349871 -0.250244
0.400554 -0.562625 0.284305
0.792535 0.557572 -0.042507
0.232830 -0.018216 -0.233245
-0.451467 -0.429423 0.092671
0.387859 -0.411663 -0.254638
-0.407065 -0.367545 0.289230
-0.388225 -0.428308 0.080568
0.145203 0.643219 0.146262
0.152351 -0.311564 0.091477
-0.048759 -0.520280 -0.264272
-0.538459 0.013016 0.104749
-0.046853 -0.061788 -0.237922
0.186281 -0.622604 -0.268321
-0.171444 0.587379 0.152567
-0.353535 0.102451 -0.230873
-0.782596 -0.541012 -0.025114
-0.302413 -0.077814 -0.240830
0.502103 0.612222 -0.046780
0.112797 0.021383 0.110293
-0.165906 -0.299305 0.089707
-0.198715 0.713412 0.147619
0.137229 0.263013 -0.217835
-0.086082 0.694514 -0.194787
-0.572118 -0.578614 -0.056038
-0.127768 -0.201575 -0.246580
-0.479368 -0.504836 0.075464
0.608833 0.270961 -0.213712
0.255559 -0.110680 -0.238379
-0.144928 0.368915 0.230848
0.327773 -0.553002 0.284292
0.402032 0.362508 -0.210061
0.466294 -0.728359 -0.272218
0.425665 0.319132 0.129828
0.251272 0.662575 -0.104042
-0.285098 0.716551 0.147128
0.087132 0.694427 -0.122848
0.271513 -0.523577 -0.261971
0.356597 -0.110650 0.309923
0.192122 0.305588 0.234198
0.551961 0.254447 0.127094
0.740283 0.482252 -0.200554
0.210085 -0.240462 -0.246187
-0.542406 -0.417874 -0.262228
-0.557882 -0.579448 -0.087157
0.541089 0.076283 -0.225420
-0.770747 -0.379958 -0.182670
0.403869 -0.010217 0.316060
-0.385849 -0.140563 0.187163
0.221347 -0.323177 0.091347
-0.036825 0.209470 0.119933
-0.537387 -0.327106 0.085745
-0.048583 -0.479301 0.285598
-0.557091 0.679829 -0.199293
-0.781321 -0.503488 0.073194
-0.378753 -0.263214 -0.252072
0.282925 0.586303 0.144064
0.388866 0.413153 -0.207255
-0.308660 -0.622800 -0.143661
-0.475620 0.448781 0.162408
-0.196728 -0.581803 0.073241
0.206723 -0.718587 -0.156314
-0.113863 -0.026209 0.311115
0.041347 -0.693041 -0.064120
-0.746498 -0.394988 -0.262501
0.378211 -0.752123 -0.132260
-0.148581 0.387818 0.334626
-0.381338 0.775361 -0.007210
0.580110 -0.484811 -0.257345
0.409456 -0.018663 0.315618
-0.184021 -0.132810 -0.243068
0.262108 -0.592735 0.281499
0.566974 -0.346983 -0.249530
-0.329359 -0.350198 0.179459
-0.565245 -0.265143 0.216751
0.433231 -0.773561 0.056756
0.439749 0.627384 -0.105933
0.710304 0.523925 0.143804
-0.525766 -0.291887 0.292653
-0.607413 0.493308 -0.208807
-0.023559 0.714329 -0.108751
0.036083 0.334045 0.332973
-0.221336 -0.642680 -0.083825
-0.070432 0.357954 0.180043
0.157445 0.104547 -0.226780
-0.291417 0.198262 0.117310
-0.113794 -0.050431 0.309725
0.071455 -0.075047 0.174551
0.002683 0.310145 0.126023
0.184083 0.665583 0.058572
-0.377251 -0.134294 -0.244656
-0.504544 -0.217217 0.095950
0.421363 -0.069234 -0.234709
-0.796467 -0.521314 0.063348
0.095717 -0.432373 0.289416
-0.217895 -0.278451 0.269638
0.017130 0.568723 -0.201210
-0.016249 0.340109 0.310720
0.376039 0.162291 -0.221764
-0.454865 -0.436227 0.178524
0.249735 -0.505823 0.278388
0.023202 -0.456747 0.287452
0.259531 -0.604804 -0.266729
-0.690943 -0.544317 -0.260490
-0.319607 0.669707 -0.198028
0.751514 0.554920 0.132984
-0.376288 -0.381410 0.160772
-0.040716 -0.684279 0.048097
0.107697 0.378068 0.336059
-0.680164 -0.122552 -0.246337
0.420568 -0.318852 -0.249053
-0.306696 -0.161628 -0.245677
-0.217254 -0.261304 0.296808
0.411642 0.584501 0.144961
0.496475 0.251741 0.126508
-0.323256 -0.103373 0.297297
-0.258125 -0.112791 -0.242495
-0.073935 0.352114 0.290348
-0.061660 -0.167169 0.098107
0.125346 -0.703783 -0.148872
-0.618817 0.405626 0.126674
-0.317985 -0.341083 0.154230
0.388004 0.102858 -0.225084
0.712550 0.147602 0.122206
-0.556376 -0.303016 0.139466
0.314288 -0.732108 -0.268812
-0.004270 -0.383033 0.291472
0.337239 0.151031 0.119485
-0.303656 -0.386937 -0.258595
-0.059586 0.720348 -0.096372
-0.761372 -0.330452 -0.145347
-0.323866 -0.154844 -0.245421
-0.455755 -0.273436 -0.253258
-0.713402 -0.492677 -0.267854
-0.287994 -0.533192 -0.266873
-0.306199 0.325972 0.124530
0.642408 -0.259951 -0.021402
-0.454660 -0.062494 -0.241134
0.438606 0.254675 -0.215971
-0.521514 0.799035 0.036629
-0.019065 0.036171 -0.232080
0.462842 -0.761076 -0.249405
0.485596 0.402093 -0.207138
0.423385 0.300422 -0.213461
0.604445 -0.077609 -0.233767
-0.581381 -0.583285 0.052733
-0.005499 -0.127357 0.165543
-0.252716 -0.123641 0.304439
0.058228 0.000607 0.268749
-0.656763 -0.226038 -0.252099
-0.003417 0.094751 0.211501
0.003306 0.622209 0.143952
-0.357529 -0.127266 0.303416
0.193921 -0.506655 -0.261602
0.704212 0.575563 -0.067108
-0.447508 0.224523 -0.224593
-0.467207 0.262666 -0.222555
-0.210280 -0.247371 -0.249852
-0.151191 -0.542761 0.075838
-0.087409 -0.120328 -0.241600
-0.648092 -0.538696 0.072207
0.224200 -0.719929 -0.189100
0.127418 -0.711557 -0.023455
-0.328095 -0.349399 0.180761
-0.287567 0.676433 0.144804
0.238878 -0.730479 -0.056652
0.353987 0.180102 -0.220912
0.228795 0.403099 0.133120
0.436943 -0.600608 0.282406
-0.503795 0.157966 0.113344
-0.010470 0.531030 -0.203589
-0.254779 0.747568 0.062218
-0.257202 0.596944 0.262896
-0.229265 -0.291462 -0.252532
-0.193363 -0.466588 0.079885
0.029363 -0.692961 -0.027375
-0.171579 -0.603847 0.072170
0.521226 0.041812 0.119515
0.070333 -0.702796 0.009324
0.059347 -0.424436 0.289589
-0.117496 -0.062631 -0.238520
-0.507167 -0.587833 -0.106061
0.320416 0.178313 -0.221276
-0.125671 -0.667786 0.038223
-0.679426 -0.513073 -0.268761
-0.578039 -0.272670 0.159113
0.231410 0.153551 0.118807
0.003675 0.448584 0.339300
-0.199893 0.586056 0.265522
0.119902 0.458851 -0.206722
0.193859 -0.690962 -0.272189
-0.015420 0.345625 0.214423
0.082792 -0.063856 0.108985
0.095206 -0.117361 0.102187
-0.138999 -0.094605 -0.240524
0.091065 0.327122 0.189941
-0.123702 0.573106 0.243099
-0.256197 -0.640472 -0.010440
-0.419880 -0.604796 -0.095649
-0.406322 0.519745 -0.207316
0.031203 0.488077 -0.205732
-0.580465 0.224865 0.116590
-0.631614 -0.564431 -0.107646
-0.346339 0.496831 -0.208165
-0.240696 -0.441259 0.080972
0.228617 0.497906 0.140503
0.640126 0.291772 -0.212273
-0.458668 -0.188051 0.140052
-0.492246 -0.402293 0.286572
0.303746 0.347300 0.130498
-0.497664 -0.594590 -0.021554
0.008212 0.700093 0.031928
-0.282004 0.647781 -0.198995
0.540200 -0.385799 -0.251968
0.080284 0.332580 0.131557
-0.512726 0.018374 -0.236940
-0.383444 0.409260 0.304364
-0.343425 0.763580 0.072258
0.348599 -0.288191 -0.247851
-0.484782 -0.211115 0.238959
-0.107511 -0.515038 0.077769
0.040172 0.654742 0.146107
-0.566128 0.499615 0.132483
-0.328412 -0.321657 0.292477
-0.418508 0.786315 -0.074982
0.251823 0.296249 0.127162
0.510273 -0.227281 0.238698
-0.247678 0.123117 0.113334
-0.108931 0.721292 0.044529
0.374542 -0.627503 0.127963
0.495383 -0.778953 0.067299
-0.075810 0.456547 0.339139
-0.726647 -0.546013 -0.118147
0.125000 0.022287 0.110440
-0.547384 -0.108756 0.097685
-0.120770 -0.423185 0.082942
-0.340792 -0.107785 0.151155
-0.162788 0.106110 0.113017
-0.518460 0.435575 0.129175
-0.665701 0.066673 0.106841
-0.142789 -0.389960 0.084679
0.680817 0.473165 -0.201538
-0.478284 0.357608 0.125009
0.126207 0.522628 0.305401
0.544918 -0.779389 -0.118571
-0.236644 0.594257 0.243142
-0.226864 0.617371 -0.200313
0.203528 -0.642867 -0.269351
-0.441896 -0.431422 0.257030
0.526591 0.349359 -0.209848
0.455727 0.623302 -0.087421
-0.236745 -0.348268 0.086343
0.466602 0.232416 -0.217032
-0.483409 0.418611 -0.213724
-0.317347 0.773237 -0.174648
0.410239 -0.754329 -0.196673
-0.044064 0.542840 -0.203172
-0.534816 0.626404 -0.202188
0.551285 0.032714 -0.227843
-0.454973 -0.592008 -0.201166
-0.747030 -0.439314 -0.265051
0.186573 0.676244 -0.130368
0.199660 -0.117833 -0.239225
0.102906 -0.184253 -0.243792
0.005875 0.627071 0.144251
-0.751124 -0.551928 0.060141
-0.555557 0.166355 0.113423
0.435743 -0.623029 0.078918
-0.149945 -0.663904 0.049519
-0.027224 -0.144982 0.217852
0.201279 -0.329009 0.090856
-0.325311 0.606578 0.315925
-0.360961 -0.258804 0.295834
-0.019875 -0.134821 0.119568
-0.326485 -0.365012 0.084684
-0.602279 0.226944 0.116540
-0.146933 -0.156564 -0.244144
0.707105 0.197909 -0.217144
0.119078 0.322443 0.180307
-0.596928 -0.177834 -0.248865
-0.341417 -0.622376 -0.046675
-0.628538 -0.564343 -0.118927
-0.390535 -0.542375 -0.268198
0.013042 0.672559 0.146919
0.284007 0.338744 0.129853
-0.163537 -0.414550 0.083106
-0.246973 0.760723 -0.185972
-0.453552 0.797269 -0.149533
-0.595616 0.554752 -0.108146
0.185879 0.306904 0.231701
-0.129536 0.366721 0.219157
-0.421969 -0.409492 0.098430
-0.117546 0.575790 0.177941
-0.130821 0.393478 0.335089
-0.318200 0.145678 -0.228116
-0.177469 -0.647387 -0.143411
0.076858 -0.186832 0.098054
0.560592 -0.178496 0.102294
-0.436028 0.161809 0.114091
-0.484710 -0.582342 -0.270725
0.428182 0.237359 0.125151
0.558921 -0.134201 0.104826
0.616972 0.110608 0.119338
-0.741350 -0.422871 0.078135
-0.230748 -0.389882 -0.258197
0.078809 0.442826 -0.207961
0.176960 -0.714008 -0.139396
0.670235 -0.112439 0.053771
0.627712 0.425176 0.137490
-0.126735 0.548709 -0.203478
-0.049932 0.720225 -0.124997
0.315943 0.024108 0.112029
0.022083 0.706022 -0.112852
-0.631193 0.265804 0.118547
0.062979 -0.149630 0.100083
0.042518 -0.145711 -0.242048
0.282206 0.646252 0.074746
0.186620 0.393615 0.337565
-0.486292 -0.002882 -0.237956
0.732637 0.221373 0.032414
-0.312146 0.590454 0.344993
0.558617 0.185745 -0.218997
0.126612 -0.384576 -0.255114
-0.523125 0.495686 0.132591
0.274728 -0.548090 -0.263354
-0.587922 -0.184445 0.093022
0.223523 0.656936 -0.194538
0.008791 -0.116198 -0.240615
-0.021761 0.714804 -0.122544
0.496523 0.549690 0.143621
0.691717 0.399258 0.136499
-0.268924 -0.180248 0.301062
0.740114 0.379282 0.135728
0.464913 -0.357262 0.296601
0.542251 0.054610 0.115541
0.174020 0.664032 0.116915
0.551662 0.472032 0.139590
0.351686 -0.744047 -0.185036
0.431661 0.568406 0.144192
0.194828 0.677363 -0.175620
-0.056500 -0.250225 0.093376
0.540711 -0.332308 0.093305
-0.051911 0.483691 -0.206631
0.029205 -0.334280 -0.252982
0.043899 -0.091496 0.127516
0.396639 0.210080 -0.218858
0.448967 -0.105176 -0.236559
-0.776605 -0.538364 -0.089141
-0.164736 -0.657465 -0.012781
-0.286455 -0.621114 -0.242905
0.287974 -0.596669 -0.266041
0.317858 0.072873 0.114845
-0.054868 -0.549001 0.160685
-0.557196 -0.575166 -0.162036
0.211403 0.605236 -0.197602
0.520781 0.038608 0.175338
0.384931 -0.352946 0.296227
0.292403 0.198927 0.121887
-0.195571 -0.260820 0.225125
-0.027146 0.702734 0.099537
-0.645803 0.286826 -0.125187
-0.009150 0.145703 0.116486
0.233455 -0.257587 -0.246989
-0.071584 0.372317 -0.213181
-0.284208 0.215929 -0.223816
-0.308824 -0.212138 0.298920
0.414624 -0.337693 -0.250181
0.424031 -0.436791 -0.255800
0.418893 0.307120 -0.213112
0.093026 0.402665 0.337357
-0.651758 -0.078921 -0.243610
0.551089 0.477579 0.139904
-0.159778 -0.243286 -0.249225
0.137351 0.260521 -0.217977
-0.331891 0.401982 0.263994
0.300694 -0.615534 0.159593
0.621560 0.595743 -0.146882
-0.529247 0.653103 -0.200612
0.451538 -0.599074 -0.264907
-0.125013 0.345778 0.127076
0.621391 0.416949 -0.205229
-0.109030 0.708218 0.148018
0.254647 -0.217307 0.097686
-0.160606 -0.093724 0.306874
-0.555009 0.773094 -0.192309
0.297802 -0.736339 -0.144544
0.064152 -0.587423 -0.267250
0.272339 -0.737296 -0.047323
-0.700284 -0.002926 -0.212760
-0.532631 0.800524 0.046692
0.089285 -0.043949 0.255828
0.488277 -0.458007 -0.256519
-0.661388 0.204397 -0.179161
-0.096932 -0.498656 0.125934
0.146471 0.522986 0.234886
-0.081257 0.033964 0.314825
-0.702543 -0.018268 -0.006972
-0.402385 -0.542907 0.073876
-0.608366 -0.576033 0.015415
0.476911 -0.780625 0.037794
0.383277 0.352885 0.131437
0.282211 -0.728213 -0.232942
-0.665693 -0.557076 -0.124155
0.136066 -0.567056 0.076676
0.177203 -0.395009 -0.255319
-0.540963 0.814873 -0.170447
0.044093 -0.692416 -0.083476
-0.111029 0.571726 0.226218
-0.443672 0.792984 -0.108197
-0.048070 0.084733 0.309337
-0.422048 -0.218305 -0.249830
-0.357704 0.771024 -0.008736
-0.223133 0.585801 0.343755
-0.295055 -0.328254 0.209841
0.377793 -0.753754 -0.103241
0.139425 -0.547925 0.077801
0.080331 -0.689665 -0.245429
0.478378 0.039419 0.296420
0.351714 -0.752219 -0.046372
-0.089302 -0.537819 0.080328
0.303140 -0.258531 0.301014
0.082953 -0.581249 0.269935
0.358355 -0.573187 0.283370
-0.116419 -0.207745 -0.246847
-0.002461 0.548210 0.280237
0.538831 0.063827 -0.226153
-0.273333 -0.310532 0.155639
-0.273571 -0.065962 0.233290
-0.403759 0.355292 -0.216741
-0.566429 0.709002 0.000328
-0.219514 -0.280582 0.289237
-0.089403 0.361389 0.182056
0.478839 0.045270 0.195611
0.145209 0.680815 -0.076441
0.238675 0.538684 -0.201213
-0.028276 -0.629631 -0.270393
-0.207335 0.147472 -0.227151
-0.438999 0.247976 0.119018
-0.098111 0.452955 0.338760
-0.205304 -0.058195 0.308567
-0.297186 -0.628359 -0.085766
-0.176184 0.616621 -0.199962
-0.205329 -0.644493 -0.103949
-0.437850 0.112262 -0.230965
0.273869 -0.726593 -0.233915
-0.143585 -0.226969 0.259719
0.450608 0.622305 -0.054221
0.455094 0.624586 -0.107214
0.183684 -0.502860 -0.261464
-0.257926 0.066199 -0.232212
0.108796 -0.515386 0.235337
-0.416039 0.790304 -0.150576
0.404261 -0.683487 -0.270123
-0.134878 0.715388 0.148229
0.225895 0.664405 -0.054414
-0.480391 0.631070 0.140700
-0.382072 -0.364193 0.289617
0.551052 0.280563 0.128587
-0.023435 0.567049 0.140575
0.379543 0.636581 -0.070608
-0.195463 0.209671 0.118711
0.159581 -0.278986 -0.248792
0.339914 -0.622451 0.152305
0.614409 -0.148101 0.104459
-0.203985 -0.021834 0.302337
-0.166562 0.125421 0.114097
-0.115083 -0.561187 -0.267137
-0.602164 -0.041107 0.101145
-0.421376 0.751680 -0.194111
-0.383606 0.055452 -0.233807
-0.281187 0.604324 -0.201485
-0.001752 0.554837 0.165459
0.243630 0.069126 -0.228144
0.464366 0.279937 0.127877
0.679424 0.081291 0.118140
0.483081 -0.204295 0.305528
-0.249019 -0.200227 -0.247446
-0.163142 0.401706 -0.212205
0.360836 -0.750407 -0.106149
-0.281826 -0.323008 0.283287
0.086273 0.531864 0.275572
-0.445983 0.361022 -0.216741
-0.326695 0.497523 -0.207973
-0.557336 0.032189 -0.236494
-0.292902 -0.514553 -0.265841
0.644569 -0.020140 0.112043
0.434374 0.564646 0.143997
-0.543167 0.133235 -0.230580
0.474698 -0.382412 0.295232
-0.244772 0.750691 -0.022630
-0.264432 0.598831 0.253857
0.720189 0.493673 -0.200054
-0.195048 -0.285274 0.090286
0.310022 -0.227933 -0.244690
-0.382908 0.673617 0.143901
0.440768 -0.346978 0.297004
-0.662413 -0.413934 -0.262935
-0.105198 0.572796 0.189509
-0.536963 -0.242198 0.148658
-0.544101 -0.440351 0.078665
-0.607313 0.056447 0.106708
-0.651720 0.251517 0.107176
-0.141510 0.364021 -0.214201
0.267879 0.337513 -0.212540
0.440511 0.343923 -0.210830
-0.715206 -0.085757 -0.018311
-0.079978 0.143099 -0.226412
-0.411119 -0.410949 0.269220
0.371210 -0.656895 -0.268853
-0.582234 -0.040632 0.101327
-0.407819 0.417367 0.244230
-0.136608 -0.223812 0.290978
-0.609659 -0.573497 -0.023524
0.224536 -0.538491 0.079004
-0.650702 -0.436705 -0.264152
-0.090268 -0.559620 0.075343
-0.142854 0.372480 0.163722
-0.237979 -0.236931 0.298047
-0.129402 -0.179474 -0.245324
0.451750 0.510523 0.141024
-0.036047 0.719630 -0.159045
-0.166747 0.582809 0.215231
-0.414805 0.186500 -0.226522
0.731089 0.438692 -0.203127
-0.323213 0.665701 -0.198286
-0.297051 0.016257 -0.235385
0.211228 0.512814 0.201641
0.713176 0.367653 0.134850
0.394179 0.220538 -0.218277
0.663680 0.066122 0.117146
0.471416 -0.775527 -0.031299
0.406976 0.307047 -0.213209
-0.484929 -0.405679 0.112075
0.388061 -0.637777 0.259415
-0.294265 0.695197 0.145830
0.697060 0.483128 0.141358
-0.415384 0.784284 -0.050431
-0.009955 0.159534 -0.224923
-0.316672 -0.174152 -0.246474
0.288354 0.311600 -0.213869
-0.546019 0.807285 -0.025516
0.225130 -0.269964 0.094432
0.298555 0.412403 0.134197
0.592499 -0.184025 0.102225
-0.426986 0.019367 -0.236217
0.344948 0.635586 0.056313
0.118855 0.637029 -0.196496
-0.686323 -0.049401 0.100014
-0.681619 -0.564748 0.056765
-0.528529 -0.143428 0.095840
-0.311719 -0.092061 0.232051
-0.365442 -0.520317 0.075461
-0.288359 -0.406016 -0.259572
-0.382063 -0.073819 0.100977
-0.641253 -0.473252 -0.266177
0.133056 0.155439 0.118150
0.699162 0.340760 0.133197
-0.223114 -0.623561 -0.271560
-0.247042 -0.188426 -0.246753
-0.181399 -0.250992 0.223034
0.050632 0.201688 -0.222031
0.125230 -0.387002 -0.255264
-0.665757 -0.054771 -0.242332
-0.171110 0.746655 -0.188382
-0.770229 -0.431166 -0.264763
-0.053812 -0.301303 0.090463
-0.299173 0.395273 0.333883
-0.455709 0.387387 -0.215302
-0.389250 0.473807 0.337694
-0.558135 0.265405 -0.223105
-0.161865 -0.469574 0.079958
-0.057197 0.565478 0.161103
0.480260 -0.174540 0.307215
-0.393551 -0.080861 0.100483
-0.231721 -0.609907 -0.270842
0.066816 0.109012 -0.227228
0.054945 0.011951 0.173705
0.177165 -0.392050 -0.255150
-0.366515 0.323908 -0.218254
-0.795955 -0.513377 -0.264093
0.617956 0.023395 0.114337
0.019928 -0.207733 -0.245786
-0.248022 -0.522066 0.076273
-0.101629 0.679614 0.146433
-0.474138 0.689380 0.144097
0.017402 0.070992 0.114063
-0.374069 0.625223 0.154414
-0.242174 0.031487 -0.234084
0.478117 0.606951 0.118999
0.723429 0.172387 0.018512
0.051701 -0.688567 -0.173019
-0.203584 -0.650989 0.000802
0.414161 -0.085765 0.311800
-0.530051 0.032892 0.105956
-0.225126 0.588148 0.310253
-0.000748 -0.546434 -0.265401
-0.170749 -0.180212 -0.245688
0.653536 0.178191 -0.218693
-0.467284 -0.595679 -0.099690
-0.409704 0.185959 0.115683
0.514997 0.162957 -0.220645
-0.238182 0.023963 0.107712
-0.121876 0.378451 0.334296
0.166442 -0.218240 -0.245250
-0.505535 -0.291770 -0.254698
0.452649 0.054299 0.125599
-0.456305 -0.594281 -0.158334
0.622528 -0.364091 -0.153564
0.023487 0.137547 -0.225926
-0.348751 0.456441 0.337011
-0.286022 -0.320841 0.186470
0.013346 0.370331 -0.212634
0.443942 -0.535580 0.286196
-0.124027 -0.667546 0.028925
-0.585568 -0.231801 0.090321
0.037323 0.390710 -0.211277
0.434564 -0.761173 -0.157816
0.492389 0.362102 -0.209382
0.023006 0.697571 0.027709
0.162207 0.274132 0.125195
0.159184 0.670373 0.056423
0.250577 0.622245 -0.196320
-0.138139 0.299142 -0.217901
-0.740721 -0.553251 0.049527
0.501210 -0.786269 0.056342
-0.423104 -0.417304 0.233415
0.711408 0.109912 -0.092292
-0.026317 0.070872 -0.230143
-0.449694 -0.227031 0.296969
0.500800 0.304910 -0.212602
-0.785830 -0.461549 -0.120429
-0.087439 0.566788 0.235036
-0.583207 0.237565 -0.224899
-0.454718 0.425457 0.256017
-0.563701 0.545091 -0.207083
-0.526990 0.004474 -0.237850
0.271627 0.480400 0.137893
0.509532 -0.229022 0.099095
0.229845 -0.209964 0.097915
0.319940 -0.420463 0.291843
0.295710 -0.615698 0.178228
-0.515355 -0.228168 0.163817
-0.688145 -0.557346 -0.048162
0.079735 -0.363338 0.126956
0.401526 0.105409 0.117364
0.446870 -0.319948 -0.248911
-0.423130 0.421940 0.215283
-0.224965 -0.031144 0.204835
-0.648905 -0.050517 0.100241
-0.490952 -0.221047 -0.250523
-0.350394 -0.363323 0.154473
-0.224996 -0.279254 0.191595
0.085276 0.302469 0.126224
-0.137499 0.578667 0.192549
-0.433056 -0.495432 0.076364
-0.520734 0.798697 0.039881
-0.118095 -0.093373 0.307225
-0.309616 0.674844 0.144542
0.630326 0.147320 -0.220646
0.307071 0.498770 0.139224
0.383893 -0.269714 0.300999
-0.071203 -0.008646 0.312456
-0.221136 0.268468 0.121889
-0.408392 -0.158966 0.243604
-0.433457 0.116414 0.111504
-0.516264 0.456492 0.130393
0.127842 -0.370734 0.099536
-0.036562 -0.555930 0.220111
0.629057 0.585076 0.010392
0.024383 0.434653 -0.208854
-0.340131 -0.517225 -0.266362
-0.534829 0.619534 0.139614
0.698127 0.410374 0.137187
-0.544596 -0.327966 0.251529
0.040466 -0.435623 0.288800
-0.218988 0.223889 0.119345
-0.531196 -0.259173 0.294489
-0.550555 -0.312495 0.153417
0.551296 -0.088867 0.107370
-0.130874 0.108098 0.113379
0.039778 0.037493 0.125048
-0.174715 0.279021 0.122856
0.591803 -0.011040 0.112155
0.032234 0.603616 0.143109
-0.141804 0.722126 0.134917
0.308440 -0.108451 -0.237840
0.106216 0.384699 -0.211087
0.189908 0.325824 -0.213818
0.087083 -0.081351 -0.238005
-0.089843 0.629037 0.143620
0.023644 0.707105 -0.136216
-0.314888 -0.144472 -0.244756
0.484864 0.580065 -0.196921
-0.468204 -0.101369 -0.243472
0.664421 0.112647 0.119824
0.060199 0.018019 -0.232506
-0.283838 -0.608236 -0.271152
-0.153540 0.658264 -0.197394
-0.091625 -0.191933 0.271246
0.175908 -0.311858 -0.250554
0.061048 -0.119583 -0.240403
-0.346652 -0.160756 0.301577
0.449803 0.044605 0.299243
-0.541873 -0.014129 -0.239034
0.240456 -0.223067 0.097245
-0.550606 0.792285 0.080804
0.033225 0.642664 -0.196838
-0.531051 -0.348512 0.262088
-0.089195 -0.182838 0.128684
-0.202443 -0.266645 0.246471
-0.470303 -0.456664 0.078301
0.384420 0.398087 -0.208155
0.402312 -0.431314 -0.255654
-0.488598 0.140931 -0.229713
0.361991 0.313967 0.129036
0.375474 -0.592337 -0.265112
0.626842 0.586629 -0.008933
0.163151 0.065042 0.113192
0.312042 0.615728 0.145980
0.686794 0.426464 -0.204174
-0.261403 -0.050959 0.105508
-0.318354 0.768607 -0.092837
0.363577 -0.083018 0.311565
-0.056337 -0.184706 0.097141
-0.592513 0.507453 0.132728
-0.301231 0.099138 0.111540
-0.547629 -0.264620 0.294049
0.562071 -0.346211 -0.249524
-0.444345 -0.039062 -0.239708
0.287373 -0.740267 -0.044688
-0.433318 0.108020 0.111023
-0.409204 -0.160627 -0.246417
-0.261635 0.002236 0.106282
0.497876 -0.709078 0.071332
-0.540514 0.323916 0.122590
0.229437 -0.266725 0.094652
0.341132 -0.333220 0.297019
-0.524453 0.723628 0.145673
-0.313600 0.000192 -0.236436
-0.437754 -0.173546 -0.247381
-0.203247 0.307646 -0.217919
0.580684 -0.590364 0.013917
0.611023 -0.019959 -0.230404
-0.471963 0.066724 0.108351
-0.460744 0.243073 0.118567
-0.559432 0.080156 0.108442
0.438131 -0.280907 -0.246737
-0.133343 0.730495 -0.034088
0.086423 -0.523384 -0.263399
0.054980 -0.567737 0.129462
-0.228817 -0.522866 0.076377
0.337339 0.317775 0.129063
-0.007532 -0.132584 0.239099
0.007140 0.350828 -0.213803
-0.038947 -0.573240 -0.267237
0.564613 -0.419448 0.088486
0.041678 0.644796 0.145547
-0.638408 -0.559389 -0.171645
0.584301 0.070796 -0.225399
-0.485128 -0.441187 0.079075
-0.182330 -0.191908 0.301066
0.120899 -0.376626 0.221653
0.097913 -0.490762 0.286079
-0.056105 -0.656098 0.070067
-0.099021 0.155149 -0.225868
-0.444684 0.335407 0.123995
-0.664778 0.079640 -0.234604
-0.273516 0.750947 0.064423
0.283271 0.033563 0.112318
-0.377086 -0.425565 0.080812
-0.014423 0.612761 0.143271
-0.648165 -0.392035 0.080631
0.272836 -0.605801 0.082920
-0.088551 -0.658207 -0.242475
0.679080 -0.063474 -0.052895
-0.388929 0.247495 -0.222818
-0.304515 0.756310 0.071954
0.273291 0.382244 0.132268
-0.622369 -0.518059 -0.268604
-0.488641 0.410736 -0.214217
0.551231 0.183044 -0.219209
0.354415 0.094803 -0.225808
-0.504297 0.801372 -0.057819
-0.159662 -0.468278 -0.262147
-0.115229 -0.531183 0.076782
-0.046049 -0.091691 0.307881
-0.428871 0.005904 -0.237005
-0.467580 -0.586420 -0.255959
0.242575 -0.237008 -0.245736
-0.398904 -0.152450 -0.245867
0.202644 -0.716616 -0.176809
-0.121279 0.542049 0.343697
0.222603 0.463386 0.290440
-0.375184 0.627981 0.141340
-0.196516 -0.402440 -0.258652
-0.259686 0.508635 0.340701
-0.025264 0.712263 -0.068253
-0.163353 0.168379 0.116589
-0.505755 -0.373760 0.091080
0.105993 0.531067 0.226391
-0.065585 -0.679249 0.068664
0.236082 -0.358466 0.089434
-0.159407 -0.540720 0.075891
0.491258 0.608822 0.045436
-0.574449 -0.208656 -0.250460
0.074312 0.066367 0.112578
0.651450 0.586311 -0.195267
0.400477 -0.757663 -0.109014
0.501102 -0.274147 0.103805
0.224793 -0.733340 0.036720
0.175732 -0.303685 -0.250086
-0.416255 -0.033228 0.103043
-0.707965 -0.533856 -0.270177
0.411960 -0.769666 0.058273
0.498109 0.037367 0.268511
0.473674 0.039475 -0.228059
-0.209992 0.734490 0.141831
-0.431367 -0.169480 0.142999
0.243479 0.658451 -0.009227
-0.551457 -0.581158 -0.078546
-0.591790 0.436533 -0.213537
-0.760345 -0.402131 -0.263018
-0.723868 -0.541557 -0.202631
-0.437354 0.725441 0.146455
0.109786 -0.301089 0.091748
0.561503 0.478944 -0.202134
-0.614568 -0.573364 -0.010181
-0.318112 0.661171 -0.198507
0.134514 0.576553 0.142350
-0.230120 -0.638075 -0.134076
0.582273 0.588562 0.099987
-0.102598 -0.353498 -0.255111
-0.452846 -0.436149 0.203610
0.176903 0.489044 -0.204544
-0.023433 0.104302 0.258064
0.292614 -0.128446 -0.239111
0.355869 0.062070 0.233207
0.746410 0.420962 -0.204026
-0.366564 0.773319 -0.019521
-0.538185 0.800753 0.060474
0.542265 0.113139 -0.223294
0.114405 -0.714466 0.068040
0.158232 -0.063713 -0.236438
0.432898 -0.204547 -0.242392
-0.381999 0.442280 -0.211576
-0.239136 -0.151201 0.302962
-0.480626 0.785537 0.135778
0.209554 0.561763 0.142084
-0.464258 0.291567 -0.220872
0.348602 -0.742880 -0.195053
-0.518322 0.232438 0.117508
-0.286256 0.750056 0.120072
-0.480126 0.793093 0.005896
0.298978 -0.545791 -0.263033
0.498430 0.515499 0.141672
-0.217830 0.754677 -0.176007
-0.076491 0.308780 0.125329
0.363432 0.632559 0.048914
-0.423802 0.451097 0.336121
-0.018972 -0.602009 0.073462
0.086159 0.322720 0.280297
0.505615 0.333952 -0.210896
-0.264486 -0.305605 0.177531
0.640291 0.216254 -0.216609
0.035429 -0.561288 -0.265972
0.466457 -0.614468 -0.265676
0.166745 0.050971 0.112412
-0.261994 0.601295 0.204259
-0.116718 0.252905 -0.220390
0.574393 0.108933 -0.223286
-0.148224 -0.449131 -0.260958
0.359161 -0.751206 -0.087259
0.424196 -0.145179 0.308466
-0.147081 -0.227832 -0.248239
0.103702 0.318062 0.303585
0.458364 0.049613 0.186990
0.171124 -0.718173 -0.050128
-0.044248 -0.319490 0.089493
-0.463007 0.189895 0.115495
-0.427457 -0.023467 0.103516
-0.432794 -0.542700 0.073651
0.281669 0.049469 0.113219
0.062987 -0.569635 0.136215
0.392354 -0.166272 0.307007
0.292505 -0.319591 -0.250091
0.240284 -0.734700 0.010548
-0.384569 0.235282 0.118712
0.015875 0.111489 -0.227482
0.024158 -0.103775 0.103331
0.089473 0.692959 -0.105377
-0.152961 -0.654871 -0.094272
0.251148 0.200294 0.121645
0.325144 0.505638 -0.202438
-0.241667 -0.643716 -0.001566
0.543684 0.035977 -0.227715
0.658062 0.574705 0.094243
-0.078403 -0.678319 0.066748
-0.058506 0.204654 -0.222709
0.392782 -0.599529 0.282125
0.340044 -0.249998 -0.245724
-0.469086 -0.598372 -0.048235
0.414891 -0.500793 -0.259547
0.112028 -0.712115 0.034952
0.410993 -0.123219 0.309624
-0.492494 0.796208 -0.007671
-0.012685 0.346842 0.185072
-0.019271 -0.573212 -0.267083
0.382195 0.061815 0.222038
0.428687 0.210809 -0.218567
-0.413511 0.117781 -0.230459
0.668984 -0.021039 -0.230016
0.148881 0.092979 -0.227511
-0.165000 0.081054 0.111560
-0.484432 -0.514596 0.074864
0.500195 -0.590760 -0.264051
0.201893 -0.372688 0.088351
-0.512454 0.253620 0.118771
0.448421 0.177899 -0.220304
0.626124 0.523920 0.143149
-0.011417 0.703000 0.045001
0.394121 -0.527140 -0.261222
0.012317 0.675162 0.147063
-0.203322 -0.265357 0.210175
0.635022 0.539759 0.144128
0.053691 0.285354 -0.217202
0.310642 0.161914 -0.222294
0.144077 -0.199454 0.097852
0.372195 -0.628881 0.158822
-0.102906 -0.201172 0.300075
0.117947 0.495044 0.342857
-0.443033 0.427368 0.186414
-0.347692 0.761695 0.117840
0.236016 0.657414 0.032111
-0.116735 0.031600 -0.233102
0.159192 0.066052 0.113220
-0.627170 0.386881 -0.155585
-0.424936 0.530214 -0.206859
-0.250560 0.393284 0.153017
0.297524 -0.716474 -0.272848
-0.506381 0.809219 -0.184425
0.522163 0.612823 -0.120795
-0.138627 0.362255 0.323900
0.155362 -0.358993 0.088776
-0.377062 0.025734 -0.235463
0.330881 0.651973 -0.177206
-0.452407 0.781348 0.117166
-0.267442 0.259315 0.121003
-0.287081 -0.096659 -0.241793
-0.423170 -0.097532 0.099296
-0.681422 0.087061 0.107890
0.263320 -0.432706 0.245715
0.342944 -0.005119 0.114737
0.084163 -0.264716 -0.248559
0.610188 0.596798 -0.128639
0.774794 0.566884 -0.144217
0.412401 -0.522908 0.286678
0.238574 -0.147939 0.101546
-0.019801 -0.554153 0.136641
0.039418 -0.457913 -0.260004
-0.666816 -0.413248 0.079267
-0.079323 -0.673036 -0.020025
-0.178082 0.379177 0.162040
-0.360563 0.620330 0.194533
-0.206333 0.181382 0.117002
0.323617 0.224250 0.123585
-0.619757 0.330686 0.122363
-0.636115 0.340026 -0.215213
0.065208 0.032247 0.110547
0.022251 0.337723 0.228793
0.620133 0.338540 -0.209742
0.114183 0.325594 0.142366
0.289871 0.167873 -0.222113
0.478590 -0.132174 -0.237879
0.515496 0.291638 0.128947
-0.081509 -0.543875 0.158372
-0.361908 0.606780 -0.201971
0.608200 0.524350 -0.199163
-0.642945 0.002803 -0.238847
-0.494326 -0.553204 0.072570
0.361735 0.338401 0.130437
0.409284 -0.260034 -0.245762
-0.362465 0.507564 -0.207674
0.448797 0.455583 0.137845
-0.523831 0.047312 0.106832
0.358487 -0.746122 -0.171429
0.486937 0.329068 -0.211322
-0.664723 -0.381839 -0.261109
0.237278 0.658492 0.009803
0.183745 0.005444 0.109929
-0.457667 0.432183 0.151197
0.546650 -0.096191 -0.235283
-0.377403 -0.320324 0.292173
-0.389211 0.628284 0.150598
0.597793 0.188203 -0.218551
-0.280589 0.396538 0.193262
0.053882 0.507675 -0.204431
-0.332971 0.145331 -0.228251
0.143827 0.627546 0.145351
0.260571 -0.663044 0.072130
0.134885 -0.583891 0.075699
-0.430472 -0.601294 -0.121411
-0.329272 0.582678 0.344413
-0.595675 -0.448387 0.077802
0.144243 -0.136864 0.101448
0.166984 0.079927 0.114077
-0.162927 0.352672 -0.215019
-0.023721 -0.544637 -0.265476
0.456222 -0.516855 0.284641
0.304254 -0.030312 -0.233384
-0.165823 0.326272 0.125639
-0.496774 0.026839 -0.236330
0.564790 0.551402 -0.197946
0.231774 -0.382011 0.088048
-0.545014 0.217865 0.116464
-0.035868 0.708462 0.030022
-0.292780 0.310223 -0.218467
0.072349 0.528072 -0.203115
-0.010597 -0.228836 -0.247235
0.215983 0.617153 -0.196882
-0.131353 0.664196 -0.196881
0.495073 0.469681 -0.203182
0.315400 0.379517 0.132439
-0.618588 -0.188602 -0.249652
-0.013589 0.491378 -0.205891
-0.331547 0.182339 -0.226114
0.291300 0.177413 0.120643
-0.068123 -0.550526 0.228736
-0.096828 -0.662953 0.069357
0.456766 0.549214 -0.198912
0.317341 0.607123 -0.196670
0.137283 0.678828 -0.017495
-0.555083 -0.305778 -0.255888
0.419160 0.032359 0.318624
-0.483973 0.664182 -0.199623
-0.773763 -0.396332 -0.166502
-0.061542 0.350741 0.274248
0.496771 -0.531792 -0.260691
0.252315 -0.106427 -0.238160
0.073305 0.326478 0.257358
-0.203352 0.745633 -0.068484
-0.630492 -0.098881 -0.244591
0.596776 -0.325492 0.094133
0.700923 0.485472 0.141522
0.469468 0.076012 0.116204
0.412711 0.630305 -0.069534
0.302376 -0.618492 0.204467
0.783043 0.556881 -0.000589
-0.396187 -0.223516 -0.249928
-0.067510 0.461147 -0.208047
-0.031896 0.353584 -0.213948
0.222506 -0.364690 0.088971
-0.383197 0.338104 -0.217569
0.600516 -0.370814 0.091559
-0.022007 -0.062878 0.309723
-0.358852 -0.370317 0.177379
0.163761 -0.191785 0.098446
0.397376 0.597285 -0.196613
0.222942 0.508083 0.244725
0.071158 -0.245949 -0.247582
-0.147648 -0.228936 0.244006
-0.625957 -0.382493 -0.260846
-0.212599 0.752663 -0.158445
0.515059 -0.503136 -0.258903
-0.424805 0.420113 0.251620
0.388098 -0.000731 0.316482
0.545472 0.026000 0.310901
0.282556 0.303507 -0.214379
-0.079733 -0.184752 0.289967
0.327292 -0.743597 -0.115093
0.257582 -0.133729 0.102510
0.117308 0.614627 0.144403
-0.050753 0.354277 0.179888
-0.314203 0.654225 -0.198875
0.525860 0.291415 0.129015
-0.665273 -0.562030 -0.041374
0.358965 0.451729 -0.205272
0.326025 -0.398036 -0.254336
0.661923 0.305337 0.130872
-0.120666 0.556661 -0.202974
0.476780 0.039518 0.299831
-0.555805 0.367021 0.124947
-0.366653 0.147342 -0.228397
-0.126976 0.471759 -0.207900
0.493385 0.494880 0.140449
0.382618 -0.221067 -0.243731
0.574920 0.602354 -0.110820
-0.204020 -0.348971 0.086558
0.246532 -0.737773 0.042848
0.113853 0.191652 -0.222116
0.781341 0.564270 -0.120636
-0.520007 0.811891 -0.186460
-0.302966 -0.082367 0.161230
-0.033642 -0.076387 0.308857
0.544511 0.605705 -0.071002
-0.194360 0.071121 0.110762
0.274305 -0.725300 -0.257255
0.145776 0.366716 0.335703
0.217643 -0.293288 0.093034
0.741611 0.270716 -0.054813
-0.420922 0.773817 0.144899
0.588259 -0.110117 0.106437
-0.103021 -0.656217 -0.230246
0.535268 0.609703 -0.109481
0.444754 0.276106 -0.214692
0.588079 0.222974 -0.216629
-0.410327 0.654872 0.142612
-0.381884 0.626803 0.152431
0.069135 0.329678 0.216289
0.508425 0.300013 0.129373
-0.130749 0.571265 0.296764
0.006187 -0.505331 -0.262986
0.331778 0.028657 0.112414
0.297039 0.263529 0.125634
-0.440392 -0.327202 0.291288
0.420577 0.054519 0.223865
-0.504338 0.422728 0.128547
0.138291 0.674720 0.049058
-0.556423 0.443241 0.129320
0.697202 0.576437 -0.059645
-0.106551 0.658458 0.145180
0.086860 0.179697 0.119185
-0.687362 -0.545398 -0.253527
-0.531371 0.327630 -0.219322
-0.277434 0.318076 -0.217897
0.498179 -0.319097 -0.248463
0.024330 -0.694956 0.022520
