-0.679025 -0.176558 -0.212212
0.400035 -0.688316 -0.155858
-0.404157 0.634156 0.032980
0.440252 -0.285491 0.162958
0.198592 0.125589 -0.227952
-0.474173 0.021787 -0.273700
-0.402170 -0.002663 0.283240
0.487945 0.448556 0.322076
0.624195 0.654402 -0.171069
-0.673046 0.685937 -0.083077
-0.423975 -0.077075 -0.262919
-0.400310 -0.675901 0.049177
0.208099 -0.081990 0.137855
0.451562 0.664221 -0.087331
-0.212303 -0.665432 0.137883
0.180378 0.182219 0.110193
0.098611 -0.685974 0.079544
-0.675676 0.503854 -0.093229
0.236458 -0.095679 0.133810
-0.040573 0.417084 0.282676
-0.461020 -0.673696 0.060056
-0.373784 -0.240900 0.241924
-0.612509 0.441717 -0.313602
0.346126 0.001631 0.207906
0.343388 0.007131 0.288769
-0.027992 0.082760 0.191943
0.423072 -0.414755 0.341930
-0.440227 0.406692 0.045862
-0.398623 0.585219 0.036797
-0.585021 0.692242 -0.044866
-0.683207 -0.182021 -0.161211
0.172580 -0.295949 -0.200866
-0.540896 -0.679925 -0.061504
0.676393 0.299198 0.096357
-0.592180 -0.269911 -0.262824
0.452055 -0.403069 0.230788
-0.648372 0.687110 -0.144130
0.354701 0.613467 -0.249388
-0.147518 0.551871 0.264949
0.177296 0.182197 -0.233539
-0.390195 0.021274 0.282528
0.096511 0.549244 0.112090
-0.523993 0.208667 0.052958
-0.174940 -0.547189 -0.210840
-0.012891 0.094892 0.307120
0.024477 0.107447 0.300925
-0.324611 0.353473 -0.284857
0.255888 0.546162 -0.252509
0.170510 -0.353703 -0.197038
0.514020 -0.525377 0.185339
0.129337 0.034026 -0.227072
-0.009826 0.349960 0.166125
0.129549 0.682558 0.069211
-0.086306 0.669756 -0.199290
-0.352321 -0.255160 0.098516
-0.020002 -0.217574 0.122060
-0.241960 0.578066 -0.293876
-0.444954 0.681865 -0.148682
0.647482 0.287645 -0.203840
-0.073242 -0.047096 -0.237401
0.118064 0.381863 -0.251997
-0.163238 -0.666377 0.141808
0.551914 0.653889 -0.204824
-0.141274 -0.551063 0.135567
-0.381893 0.149836 -0.275290
0.668128 -0.647595 -0.024123
-0.105227 0.274417 -0.262136
-0.246086 0.283317 0.069660
0.067571 0.470681 -0.262107
0.257326 0.064074 -0.219080
-0.473279 0.156150 0.266671
-0.422246 -0.223592 0.296929
0.427153 -0.331638 -0.178374
0.019376 -0.653403 0.155277
0.603778 -0.690233 0.198683
-0.450633 0.160761 0.249388
0.126244 0.412790 -0.253490
-0.683736 -0.673441 -0.016618
0.097511 0.397402 0.294899
-0.022293 0.684697 0.046174
-0.201597 -0.418963 -0.221799
0.184268 -0.470358 -0.187894
-0.020065 -0.428599 0.136638
-0.509102 0.572920 0.028956
0.676705 0.440112 0.125769
-0.386054 0.671406 -0.283051
-0.060610 0.679480 -0.045297
-0.004938 0.245187 -0.252227
0.422340 -0.194967 0.155293
0.643463 0.129720 0.150249
0.480245 -0.001473 -0.197015
0.171034 0.677294 0.005861
-0.673297 0.106762 0.048256
-0.674381 0.455646 -0.120820
0.238866 -0.101497 -0.209090
-0.265928 0.367119 0.062308
-0.228792 -0.107572 0.098034
-0.697875 -0.039543 0.055887
0.462570 0.660082 -0.144939
-0.435916 0.019199 0.279075
-0.141318 0.482753 0.077871
0.503188 0.280057 -0.214666
0.092935 0.616803 0.073282
-0.151510 0.667109 -0.262247
-0.647627 0.074512 0.052503
-0.346867 0.367021 0.055947
-0.008841 0.665151 -0.239836
0.442433 -0.406477 0.270954
0.688962 0.210841 -0.081702
0.089973 0.401439 0.294027
-0.493021 -0.673607 0.049821
-0.662736 0.060821 0.052261
-0.238065 0.056374 -0.257517
0.327848 -0.310676 0.361951
0.395273 0.348865 0.296198
0.377345 -0.131866 0.147393
-0.175157 0.607049 0.052867
0.078276 -0.366588 -0.203403
-0.427469 -0.531727 0.146156
-0.171691 -0.461163 0.126961
-0.629923 0.413253 0.030486
0.482409 -0.698388 0.033475
-0.556317 -0.679884 -0.066461
0.201311 0.268749 0.105860
0.319310 -0.553914 -0.171496
-0.548422 0.442404 -0.308608
-0.552272 -0.582691 -0.238069
-0.368441 -0.053627 0.219390
0.681913 -0.421867 -0.143132
0.006245 0.275776 0.090030
-0.047381 0.348324 0.128211
0.357827 0.542731 0.109583
0.685608 0.116945 -0.061964
-0.013235 0.098246 0.201403
-0.461540 -0.593066 0.113277
0.570292 -0.697859 0.073104
0.010291 -0.105485 -0.226795
-0.600487 0.679861 -0.234695
-0.674513 0.111810 -0.200463
-0.515859 0.252725 0.050553
-0.139163 0.678440 -0.089162
0.074802 -0.324545 0.136910
0.425677 -0.117588 -0.193283
-0.363081 -0.117627 0.137232
0.157231 -0.549097 -0.184579
-0.109003 -0.446704 0.130893
-0.142660 0.391807 0.073154
0.163935 0.669189 -0.117323
-0.049663 0.358276 0.275479
-0.664705 -0.593330 -0.246178
0.257111 -0.694020 0.017078
-0.163086 -0.249556 -0.230477
-0.657811 0.579814 -0.298681
0.402109 0.350038 0.316127
-0.582372 -0.377427 -0.254622
-0.371320 -0.299756 0.197204
-0.538086 -0.688471 -0.187659
0.329050 -0.504093 0.346259
0.707450 0.613583 -0.217673
-0.693286 -0.668687 0.050668
-0.280655 -0.576761 0.126379
0.683326 0.450342 0.045394
0.290068 0.562083 0.092570
-0.300551 0.117051 -0.266625
0.072312 0.351522 0.219049
-0.688809 -0.191952 -0.093504
-0.629650 0.380385 0.032779
0.297599 -0.702929 -0.100870
-0.083230 0.503440 -0.276233
0.235866 -0.504039 0.161984
0.157384 -0.016608 0.122125
-0.194685 0.684007 -0.026377
-0.459656 -0.677392 0.005541
-0.369852 -0.045627 0.238921
-0.297210 -0.156607 0.096040
0.543788 -0.391202 -0.165083
-0.374925 -0.506830 0.193322
-0.673754 -0.110364 -0.262486
-0.021530 0.084228 0.159282
-0.311832 0.057030 -0.263365
-0.685257 -0.372652 -0.180645
-0.038464 -0.506007 -0.202951
0.695528 0.305078 -0.141526
0.001116 0.283581 0.089087
0.094057 0.581651 0.075799
0.674774 -0.049681 0.034122
-0.025032 -0.526984 -0.200444
0.366743 -0.536706 -0.168954
0.071423 0.352398 0.231761
0.027099 0.235557 0.094450
0.424994 -0.706431 -0.106951
-0.186779 0.686845 0.018706
-0.563188 -0.361389 -0.254221
0.227613 0.480845 -0.250220
-0.602705 0.480694 0.027967
0.092247 0.649616 0.070960
-0.522160 -0.522701 0.246267
-0.188248 0.678066 -0.112471
-0.667263 0.356820 -0.233199
0.189299 0.125790 0.114795
-0.410076 0.176098 -0.279322
-0.228729 0.666242 0.044562
-0.159270 0.063258 0.091697
-0.446100 0.323769 0.051131
-0.383198 0.678508 -0.176321
0.097241 -0.689843 0.021479
-0.673920 0.239013 -0.177806
0.244859 -0.419270 0.348015
-0.194922 -0.144770 0.103269
-0.471172 -0.267606 0.296122
0.625015 0.510830 -0.221031
-0.363057 0.270502 -0.282147
0.032190 -0.037631 -0.229761
-0.000633 -0.322946 -0.212626
-0.050650 0.532792 0.273887
0.355281 -0.491356 0.260638
-0.398404 -0.497173 0.317711
0.648575 0.346807 -0.207842
-0.481950 0.248695 -0.289992
0.158110 -0.308825 -0.201114
-0.066955 0.208946 0.088890
-0.576382 -0.496639 0.143119
0.581434 0.582296 -0.229398
0.439712 0.544036 0.311684
0.154279 -0.158111 0.337755
-0.143356 -0.658111 -0.200690
0.375474 0.006766 0.294924
-0.571065 -0.289584 0.125578
0.142406 0.457533 0.294275
-0.014192 -0.396589 0.134888
0.384345 0.656575 -0.225387
0.659182 -0.706628 -0.025269
-0.354891 -0.678922 -0.215892
0.196680 0.576483 -0.259262
0.054447 -0.219449 0.256163
-0.518041 0.196687 0.054254
-0.328416 0.470096 0.050276
0.265098 -0.217000 0.350542
-0.211055 0.294701 -0.271862
-0.161812 -0.255509 0.113526
0.168763 -0.489961 -0.187758
-0.529736 -0.168083 -0.264949
0.355981 -0.474590 0.372128
0.669560 -0.650033 -0.042608
-0.281397 0.677539 -0.153970
-0.057812 -0.586394 0.144574
-0.563471 -0.396332 -0.251829
0.636882 -0.058195 0.162718
-0.344875 -0.562128 -0.223175
0.688147 0.392727 -0.028507
0.110879 0.272987 -0.245038
0.095676 0.682917 0.062317
-0.419124 0.656768 -0.313252
0.512205 -0.184282 -0.181867
0.442425 -0.233866 -0.183930
-0.671457 -0.296164 0.076246
-0.448694 -0.523188 0.265559
0.467370 -0.174932 0.157451
-0.379974 0.435512 -0.294881
-0.698175 -0.217342 0.017606
0.675088 -0.121407 0.013243
-0.089176 0.173408 -0.253893
-0.134764 -0.176665 0.110205
0.464240 -0.452955 0.176418
-0.527045 -0.076632 -0.271057
-0.701523 -0.546950 -0.018446
-0.448352 -0.029545 0.281465
-0.641955 0.297128 0.037565
-0.057701 -0.229834 -0.223550
-0.479027 -0.674789 0.037275
0.082965 0.366286 -0.253681
0.516090 0.652375 0.104110
-0.357224 -0.590510 -0.222185
-0.035658 -0.123973 0.141770
-0.124204 -0.394603 -0.217394
0.071518 0.666929 -0.184345
-0.287366 -0.680295 0.024599
0.434910 0.209360 0.128340
-0.701720 -0.404243 0.017751
-0.198570 0.673735 -0.180641
-0.399618 -0.683680 -0.066338
-0.699219 -0.482616 -0.032048
-0.360619 0.150371 0.127288
-0.350116 0.673444 -0.239725
0.022404 -0.185468 0.213350
-0.278585 0.297602 -0.277375
0.201874 -0.244597 0.347475
0.311039 -0.472744 -0.177756
-0.645248 -0.375354 -0.259711
-0.690619 -0.438733 -0.129224
0.557222 -0.121578 -0.182659
-0.234365 0.303297 0.069201
-0.710111 -0.665200 0.096489
-0.648642 0.505669 0.022627
0.377783 0.486956 0.310757
-0.271021 -0.675061 0.108388
0.296155 0.343906 0.186585
0.216154 0.495834 -0.252157
0.087172 -0.044614 -0.224954
-0.636135 0.690099 0.010866
-0.699266 -0.533005 -0.043378
0.376787 -0.528161 -0.168755
0.248163 -0.031677 0.130307
-0.325740 0.430194 -0.290248
0.241028 0.588533 0.086885
-0.590259 0.091498 0.055842
-0.395513 0.287452 -0.285872
0.431984 0.192616 -0.214224
-0.337064 0.234341 -0.277603
-0.133234 0.665639 -0.277512
-0.684555 0.456610 0.006629
0.394221 -0.623065 0.182666
0.069656 -0.619163 0.156866
-0.253164 -0.079909 0.094205
-0.677152 0.035935 -0.185400
-0.694003 0.003416 0.017634
-0.007757 -0.153991 0.212232
0.393861 -0.516938 -0.168187
-0.679784 -0.046297 -0.171936
-0.191314 -0.678934 0.079560
0.679152 0.358424 0.075866
0.601266 -0.131142 -0.178534
-0.032073 -0.688688 -0.008059
-0.009975 0.307396 -0.256922
0.668743 -0.180499 0.078615
0.206747 -0.080501 0.131817
-0.369034 -0.326495 0.162299
-0.338091 0.060919 -0.265699
0.455356 -0.583125 -0.158776
-0.482399 0.007077 0.276256
-0.089461 0.557006 0.160412
-0.494277 -0.022053 -0.272251
0.390257 0.552278 -0.242362
0.439399 0.155915 -0.211105
0.580403 0.205883 0.140025
-0.075805 0.590691 0.061813
-0.382136 -0.038598 0.287299
0.458407 0.141394 0.340980
0.125117 -0.250904 0.341873
-0.538805 0.440887 -0.307747
-0.334078 -0.661071 0.128003
0.665671 -0.098715 0.136366
0.669406 0.657385 -0.110349
0.155422 -0.001741 -0.222548
-0.555054 0.522710 -0.314680
-0.118989 0.676786 0.052466
-0.485628 -0.531778 0.124389
-0.586479 0.037666 0.059860
-0.338047 0.269279 -0.280095
0.485974 -0.517588 0.182595
-0.264106 -0.019742 0.089186
0.288846 -0.496122 0.165605
-0.538870 -0.375858 0.298277
-0.689172 -0.115257 -0.070840
-0.182945 -0.515035 -0.213692
-0.423323 0.310413 0.053845
-0.567130 0.220195 -0.294723
0.163900 0.669429 -0.113759
-0.638963 -0.648577 -0.240335
0.488136 0.559760 -0.235180
-0.020875 0.094797 -0.243087
-0.226651 -0.292663 0.110993
0.036331 -0.041151 0.320394
-0.203517 0.411046 -0.279310
0.249562 -0.362548 0.359378
0.220051 0.362574 -0.242641
-0.136461 -0.016310 -0.244501
0.661944 0.598367 0.119316
-0.691861 -0.140934 -0.043277
0.051225 0.668913 -0.162148
0.095520 -0.599006 -0.185984
-0.444378 -0.606013 -0.227970
0.297342 -0.005446 0.132363
-0.070297 -0.062499 0.313481
-0.463055 -0.075035 0.283452
0.120027 0.667783 -0.154110
0.004463 -0.351454 0.133236
-0.087291 -0.069857 0.122135
0.167212 0.124176 -0.230322
0.699968 0.403879 -0.173693
0.412670 -0.429431 0.309220
0.137193 0.667675 -0.149506
-0.340156 0.547127 0.044029
0.130662 0.546648 0.085803
0.231374 0.675301 0.080129
0.019479 0.674514 -0.090261
0.321631 0.293138 0.113639
-0.208566 0.101880 -0.258341
-0.454207 -0.634933 0.116747
-0.390662 0.536945 0.040759
0.570852 -0.349870 -0.165810
0.595846 0.336649 -0.211288
0.341276 0.676609 0.057171
0.294581 -0.687552 0.126861
0.415817 -0.285433 -0.182459
-0.671207 0.252841 -0.208468
0.106030 0.555069 0.202215
-0.516158 0.614372 0.025537
-0.387794 0.159577 0.254462
-0.697418 -0.403060 -0.035766
-0.333173 -0.407918 0.110579
0.334063 0.552638 0.248431
0.346092 0.170477 0.330135
0.012781 -0.055434 0.319528
-0.640773 -0.642088 -0.240926
-0.204864 0.463266 -0.283025
-0.670813 -0.016393 -0.277043
-0.116262 0.372406 -0.269776
0.564364 0.624916 -0.233686
-0.156831 -0.460598 -0.215400
-0.131331 -0.694621 -0.132212
0.105945 -0.649263 -0.181691
0.481839 -0.110697 0.154150
0.484260 0.510930 0.317476
-0.077355 0.360297 -0.265878
-0.483738 0.465440 0.038379
-0.403651 0.138591 0.273362
-0.404058 0.683936 -0.103080
0.350737 0.552681 0.255091
-0.478594 -0.525088 0.226484
0.393717 -0.455844 0.251880
-0.410248 -0.414052 0.311035
-0.567702 0.025829 0.158097
0.100214 -0.177945 -0.214714
0.070880 0.406817 -0.257433
-0.246552 0.450934 0.058039
-0.537678 -0.271689 0.291172
0.671486 0.165697 0.126162
0.441035 0.278319 -0.219435
0.002666 0.344832 0.094318
-0.443300 0.313982 -0.291464
-0.660038 0.133931 0.047421
-0.137211 0.149267 0.087488
0.305942 -0.096643 -0.204149
0.560534 -0.406601 0.180790
0.659697 -0.016516 -0.181859
0.341425 0.398994 -0.235610
-0.063947 0.673095 -0.141535
0.049028 0.324636 -0.253472
0.169985 -0.568979 -0.182202
0.535650 -0.316127 -0.170911
-0.319582 -0.692557 -0.169513
0.191024 -0.696310 -0.040883
-0.320136 -0.461533 0.115310
-0.693635 0.051775 0.024458
0.012559 0.549590 0.086899
0.339955 0.041619 -0.211028
0.493783 -0.059867 0.151577
-0.553074 0.048682 0.267821
0.100836 0.157428 -0.237842
-0.700258 -0.275338 0.029945
-0.664421 0.593465 -0.212792
-0.018660 -0.518690 0.142975
0.105594 -0.564413 -0.187582
0.162716 -0.591560 -0.181213
-0.006104 0.180806 -0.247869
-0.100816 0.352223 0.166926
-0.469589 -0.565836 0.110762
-0.383682 0.400455 0.050741
0.663365 -0.401491 0.093623
0.491749 0.561188 0.108497
0.035537 -0.411292 0.139816
0.086610 -0.691131 -0.001539
0.521641 -0.551926 -0.155718
-0.634029 -0.197192 0.072350
0.560988 0.262637 0.134576
-0.640717 -0.633716 0.101991
-0.132191 -0.273515 0.117101
-0.682571 -0.174691 -0.167427
0.629788 -0.016437 -0.184217
0.681381 0.617618 0.109269
-0.156738 0.681609 -0.048354
0.008419 -0.693303 -0.062106
-0.332909 0.412930 0.053873
0.416011 -0.201857 -0.188220
0.388126 -0.162108 0.150331
0.544266 -0.174961 -0.179989
0.480884 -0.166049 0.157900
-0.470381 -0.684920 -0.110358
-0.609234 -0.081832 -0.277163
-0.138213 -0.332242 -0.222806
-0.213508 0.045052 0.088688
-0.127580 -0.588356 -0.204270
0.489264 -0.570236 0.186492
-0.560395 -0.682285 -0.103669
-0.671252 -0.416700 0.084592
-0.616320 -0.672096 0.027752
0.621140 -0.534263 -0.149112
-0.170174 -0.163675 0.106522
-0.701966 -0.638371 -0.034524
-0.270247 -0.184969 0.100122
0.069683 -0.692427 -0.026932
-0.293484 -0.679439 0.035130
-0.073165 0.424122 0.279626
-0.051969 -0.492575 -0.204941
0.678210 0.365511 -0.206804
-0.513314 0.412895 0.039684
-0.570884 -0.176616 0.075895
0.667844 -0.121377 0.103838
0.670558 0.120464 0.127066
-0.225783 0.394756 0.063556
-0.456262 0.102517 -0.277870
-0.420455 0.585953 -0.308462
0.551448 -0.661328 0.197679
0.525528 -0.695037 -0.145522
0.208579 -0.275454 0.350135
-0.526893 -0.237389 -0.259936
0.611321 0.495822 -0.221071
-0.387353 0.135823 -0.274751
-0.487413 -0.690974 -0.206604
-0.613691 0.349030 0.036202
0.658472 -0.516193 0.127693
-0.583447 0.143307 0.052798
-0.265264 -0.249551 0.104977
-0.604470 0.324043 -0.304837
0.548146 0.281990 -0.211263
0.692158 0.173723 -0.130437
0.639291 0.363735 -0.209743
0.328982 0.503815 -0.243833
-0.057381 0.234012 0.087911
-0.429306 -0.256916 0.298676
-0.018619 -0.300775 -0.215573
0.454757 0.001555 0.246030
0.675014 0.163490 0.081520
-0.407524 -0.552572 -0.228764
0.674735 -0.001342 -0.181725
0.020550 0.113006 0.188035
-0.676083 0.441177 0.024926
-0.645945 0.656731 -0.331091
0.671031 -0.476285 -0.019922
0.257082 -0.431865 0.336023
-0.476934 0.547621 -0.310256
0.145735 -0.083639 0.331936
0.094563 -0.599445 -0.186029
0.519542 -0.324402 -0.171607
0.695831 0.417602 -0.118710
-0.683525 -0.159503 -0.151908
0.570292 -0.117071 -0.181943
0.448574 -0.107380 0.151304
-0.498577 -0.212117 -0.259455
0.321742 0.085104 0.194258
0.379364 -0.468486 0.259437
-0.166415 -0.644660 0.140058
0.674149 -0.270957 -0.010371
-0.369871 0.620399 -0.306864
-0.343456 -0.674860 0.085211
-0.451007 -0.531307 0.143903
-0.677472 -0.487026 0.088963
0.113473 0.672623 -0.084446
-0.276150 -0.685769 -0.209225
0.584502 0.437295 0.124355
0.216965 0.148044 -0.228058
-0.564462 -0.126062 0.081665
-0.095442 0.673043 -0.153684
0.425754 -0.396463 -0.174004
0.258197 -0.681941 -0.167456
0.255160 0.546599 0.130044
0.400707 0.659044 -0.182735
-0.706243 -0.442921 0.065162
0.167132 -0.017992 -0.220504
0.052570 -0.161302 0.329974
0.117893 0.664049 -0.210438
-0.676381 0.274968 -0.138534
-0.428054 -0.087138 0.287042
-0.694373 0.004930 0.022618
0.365464 -0.420515 -0.177085
-0.002159 -0.682687 0.092054
-0.589998 -0.245132 0.079127
-0.121523 0.631364 0.055405
0.127063 0.108019 0.111127
-0.682683 0.060408 -0.110446
0.652658 -0.276778 -0.164427
0.199286 0.650955 0.079287
0.010717 -0.443405 -0.203408
0.085373 -0.513195 0.150779
-0.366478 -0.379268 0.117858
-0.091132 -0.365094 0.126659
0.653917 0.260951 0.142002
-0.053650 0.055482 0.173049
-0.588310 -0.036841 -0.278626
0.381995 -0.156265 -0.194046
0.014467 0.668511 -0.181405
-0.125869 -0.354680 0.123207
-0.030822 0.504548 -0.272187
-0.214537 -0.332933 0.114729
0.323383 0.143882 0.187632
0.349137 -0.507025 0.192828
0.150859 0.677715 0.004835
0.051388 -0.320117 0.134762
-0.150348 0.047327 -0.249992
-0.619957 0.675228 -0.310675
0.675071 -0.014713 0.038683
-0.541673 -0.048262 -0.274168
-0.629955 0.196122 0.045489
0.297762 -0.152281 -0.200947
-0.384159 -0.286179 -0.245336
-0.583197 -0.644029 -0.236262
-0.469619 0.510904 0.036348
0.679643 -0.437989 -0.118566
0.313315 -0.688468 0.120003
0.702392 0.471744 -0.187955
-0.413647 0.189401 0.062969
-0.320761 0.669114 -0.293565
0.034106 0.344801 0.105226
0.680805 0.170640 0.010793
-0.281364 0.402596 -0.284850
0.357115 0.244969 -0.223732
-0.070415 0.428539 -0.270049
0.046617 0.500906 0.283742
0.014260 0.621965 -0.276755
-0.076676 0.557745 0.176018
-0.537476 -0.448827 0.303430
-0.693981 -0.476099 0.086909
-0.242148 0.430384 0.059806
0.634815 0.668174 0.037713
0.087822 0.620233 -0.270849
-0.147163 -0.228567 0.112817
-0.459960 -0.682968 -0.077551
0.433460 0.553053 0.104474
-0.083770 -0.645608 -0.196867
0.092651 0.221305 0.100591
-0.361894 0.052939 0.162707
-0.431055 -0.352028 0.305112
0.421131 -0.703484 -0.064495
0.222251 -0.605331 0.167913
-0.536647 0.683380 -0.159272
0.354595 0.668491 -0.058816
0.056805 0.174166 -0.242462
0.298300 -0.191219 0.351372
0.699202 0.592508 -0.119518
0.179951 0.240803 -0.237380
0.496661 0.126318 0.345031
-0.561212 0.113194 -0.286863
-0.373353 -0.517333 0.171190
0.379301 -0.689403 0.129938
-0.270521 -0.247062 -0.239100
-0.401423 0.250158 -0.283759
-0.648404 0.212399 0.042913
0.425708 -0.430977 0.212107
0.466136 -0.704751 -0.067086
0.407224 0.550824 0.247872
0.186472 0.346895 0.191434
0.285571 -0.053735 -0.208717
0.306978 -0.696308 0.001040
-0.429579 0.689923 -0.023219
-0.462321 0.079251 -0.276738
-0.190711 0.303724 0.072605
-0.326214 0.160930 -0.271677
0.428979 0.342801 0.218135
0.154498 -0.248542 -0.205565
0.172900 0.490761 0.294377
0.681291 0.116519 -0.008072
0.344514 -0.692273 0.074648
-0.317206 -0.079434 0.089134
-0.374570 0.162800 -0.275610
-0.206050 -0.652133 0.137456
-0.138448 0.592774 -0.286750
-0.607894 -0.672692 0.021932
0.594482 -0.051975 -0.184539
-0.371149 -0.244831 0.208046
-0.029057 -0.213142 -0.222450
-0.282764 -0.336508 0.109609
0.345123 0.281532 -0.227202
0.488259 -0.051266 0.150548
-0.416173 -0.526372 0.229929
0.181193 -0.530236 0.159494
-0.627239 -0.386916 -0.257496
-0.104951 -0.345891 0.124245
0.652657 -0.222277 0.175298
0.503692 -0.341886 -0.171645
-0.565065 0.256941 0.046391
-0.207473 0.666621 -0.289723
0.391138 -0.703262 -0.072036
-0.032523 -0.684290 0.057222
0.205821 0.302309 0.103896
0.573975 0.576348 0.113917
0.655477 -0.706913 -0.030847
0.274558 0.593397 -0.254305
0.481423 0.288258 -0.216945
-0.568849 0.376010 -0.305627
0.539519 0.382755 -0.218905
0.462516 -0.339584 0.168448
0.493272 0.549077 0.252965
0.102375 0.535887 -0.263875
0.687779 -0.154515 -0.153286
0.471400 0.012984 -0.198710
0.114676 -0.695473 -0.177811
-0.487633 -0.086282 0.282296
-0.047981 0.077904 0.290783
0.381104 0.665941 -0.087190
0.140924 0.221222 -0.239097
0.376800 0.551091 0.240855
0.681902 0.242995 0.014189
-0.287290 -0.432830 -0.227581
0.579960 0.280241 -0.208640
0.419767 -0.505549 -0.166936
0.689632 0.075553 -0.122061
-0.045102 -0.027208 0.313024
-0.063079 -0.277850 -0.220654
-0.129112 0.668980 -0.226303
-0.314927 -0.687452 -0.091872
-0.233939 -0.679081 0.061959
0.266461 0.365848 -0.239216
0.425398 0.671725 0.014889
0.160569 -0.602304 0.162852
-0.180999 -0.376978 0.120411
-0.083566 0.044187 0.293073
0.355981 0.543334 0.117894
-0.246806 -0.630722 -0.210721
-0.221191 -0.554398 0.129511
-0.638319 -0.008613 -0.284511
-0.294366 -0.167890 -0.246447
-0.085413 -0.687877 -0.015264
0.405068 -0.516540 -0.167333
0.042273 0.235813 -0.247865
-0.320718 -0.391023 -0.233100
-0.582397 0.100939 0.055808
-0.073041 -0.684988 0.032199
-0.654115 -0.097066 -0.279641
-0.124810 -0.409855 -0.216388
-0.359244 0.019429 0.121648
-0.006347 0.669261 -0.177778
-0.482048 -0.313537 -0.251145
-0.226995 0.045550 -0.255898
-0.271775 -0.036567 0.089746
-0.099782 -0.688948 -0.195131
0.059697 -0.223488 0.145204
0.294023 0.283266 -0.231341
0.274702 0.127936 0.121365
-0.276332 -0.682745 -0.007872
0.325045 0.188560 0.177408
0.335532 0.576808 -0.248362
-0.377168 -0.401552 0.246263
-0.310441 -0.338038 0.107538
-0.240137 -0.487265 -0.220110
0.282417 -0.230007 0.352803
-0.218101 -0.297903 0.112028
-0.127599 0.678735 -0.080602
-0.308781 0.145161 0.074276
-0.356292 0.683713 -0.089143
-0.109704 0.668472 -0.226865
-0.149950 0.629749 -0.290210
-0.654722 0.092670 -0.292801
-0.668790 0.437763 -0.194974
-0.229134 -0.489810 -0.219069
0.668221 -0.460566 0.018926
-0.491693 0.474621 0.037119
0.635622 0.348189 -0.208957
-0.385341 0.483712 0.044857
-0.451566 -0.430410 0.308915
-0.026009 -0.441393 0.137055
0.294001 -0.232269 -0.195716
0.227934 -0.399500 0.184724
0.521849 0.383583 -0.220353
-0.025243 -0.003901 -0.236610
0.124861 0.670946 -0.105295
-0.521642 -0.529213 0.149533
-0.179066 -0.689667 -0.075742
-0.160058 0.074545 -0.252636
0.394326 -0.688049 0.155514
-0.472625 0.406253 -0.300148
0.674339 -0.482839 -0.062835
0.447165 -0.707157 -0.109751
0.486963 0.380694 0.326689
-0.603894 0.676257 0.014358
0.614518 0.503727 -0.221366
0.532563 -0.700844 0.015054
-0.051808 -0.553350 -0.200729
-0.130808 -0.251388 -0.227811
-0.103235 -0.695931 -0.141560
-0.303688 0.311487 -0.280309
-0.288870 -0.681377 0.007953
0.340973 0.121844 -0.216493
-0.373530 -0.557404 -0.225756
-0.138865 0.546902 0.062366
-0.373363 -0.410102 0.196659
0.417866 0.542433 0.126850
0.526570 -0.697479 0.062962
-0.130670 -0.137860 -0.235646
-0.704807 -0.565944 0.018124
-0.384587 -0.525889 0.248531
0.375820 -0.646847 0.182862
-0.284759 0.687481 -0.007235
-0.583076 0.648050 0.017945
-0.511447 0.677142 -0.242987
-0.093602 0.418590 0.278401
-0.336235 -0.680536 0.003346
0.372027 -0.353462 -0.181202
0.276051 0.665519 -0.131427
-0.390179 0.159965 0.259386
-0.143135 0.397997 0.080550
-0.498572 -0.310822 -0.252633
0.462218 0.160406 -0.209620
-0.704375 -0.576105 0.010320
-0.498238 0.634827 0.025533
0.162027 -0.441752 0.151871
-0.334202 -0.185493 -0.248364
0.286418 -0.238901 -0.195854
0.423342 0.661163 -0.143023
-0.090128 -0.203383 0.115563
-0.684854 0.030628 -0.090345
-0.607709 -0.022161 -0.281167
-0.379366 0.264887 0.060449
0.652020 -0.568615 -0.144308
-0.421460 0.235910 0.059141
-0.577658 -0.475051 0.302081
-0.503312 -0.442650 0.305690
0.236513 -0.590600 0.168017
0.485767 0.661695 -0.112562
-0.687382 -0.184518 -0.109598
0.316636 0.102605 0.262239
-0.692777 -0.667279 0.071809
0.565288 -0.405739 0.181104
0.333330 0.005494 0.260763
0.520733 0.673488 0.075572
0.509795 -0.399080 -0.167213
0.156231 -0.528510 -0.186080
0.234410 -0.084364 -0.210624
0.019656 -0.332626 -0.210361
-0.480802 0.573886 0.031116
-0.662867 0.660364 -0.216411
-0.374510 -0.375203 -0.238425
-0.303548 0.238900 0.068209
-0.367979 -0.188714 0.181670
-0.038280 -0.318135 -0.215920
0.626338 0.531255 -0.222339
0.322568 0.516604 -0.245221
0.223592 -0.185421 0.345094
0.077890 -0.178875 -0.216405
0.702547 0.613552 -0.156378
0.596158 0.672447 0.087330
-0.546411 0.550708 -0.315935
-0.152088 0.558952 0.230559
0.388144 0.671842 0.003178
-0.620955 0.691155 -0.074032
-0.659335 0.664036 -0.259708
-0.530608 -0.625353 0.110075
-0.059473 -0.425138 0.133299
0.456014 0.337608 0.150628
-0.640896 0.446130 -0.316140
0.149623 0.351865 0.252078
-0.503239 -0.173529 -0.262488
-0.622408 -0.567174 0.098833
-0.466796 -0.685402 -0.116234
-0.678108 -0.003678 -0.182811
0.100796 0.670636 -0.118604
-0.368568 -0.272867 0.169150
-0.615269 0.361979 -0.308308
0.253359 0.219038 -0.230101
-0.544306 -0.669966 0.085465
0.248772 -0.684887 0.149977
-0.636512 -0.615829 0.101086
-0.534934 0.247234 -0.294059
0.049502 0.344391 0.104691
-0.318134 -0.424553 0.112912
-0.231479 -0.286736 0.110204
0.431589 0.169343 0.336939
0.409469 0.000278 0.210660
-0.169819 -0.012224 0.096083
0.060794 -0.423258 0.142630
0.212131 0.412671 0.302860
-0.580678 -0.487610 0.198964
0.589235 -0.185696 -0.175710
0.087478 0.380316 0.295290
-0.540516 0.694146 -0.000455
-0.337980 0.400406 -0.289152
0.481826 0.138943 -0.206594
0.072940 -0.688969 0.025697
-0.113172 -0.697802 -0.172994
0.507216 0.536068 0.317544
-0.416378 -0.445304 -0.236873
-0.571896 -0.145157 0.170107
-0.564351 -0.156475 -0.268474
-0.190414 -0.060097 -0.245719
-0.702605 -0.346628 0.042434
-0.682649 0.529400 0.000003
-0.688994 -0.314888 -0.120255
-0.686783 -0.217326 -0.124842
-0.036994 -0.125348 -0.229142
-0.355373 0.088907 -0.268993
0.646152 -0.696909 0.114645
-0.444643 -0.187016 -0.256947
-0.574171 -0.359846 0.294394
-0.579658 -0.236855 0.245501
0.195422 0.381796 -0.245907
0.276247 -0.028124 0.132271
-0.222521 0.668609 -0.265579
-0.292157 -0.686360 -0.067390
0.668004 0.263798 -0.200578
-0.021851 -0.357033 0.131552
-0.362440 0.036563 0.165664
0.374509 0.213589 0.314320
0.675652 0.052776 0.047366
0.505041 0.343995 0.263386
0.487273 0.235474 0.130654
-0.057898 -0.398347 -0.211920
0.368575 0.232694 -0.221982
-0.332904 -0.394898 -0.233791
0.375656 -0.690650 0.110066
0.100130 0.674632 -0.059367
-0.111461 0.186668 -0.256562
-0.543125 0.161733 0.230427
0.015638 0.676381 -0.063876
0.539398 -0.424875 0.180390
0.064352 -0.573563 -0.190194
0.674933 -0.437254 -0.059492
0.451942 -0.404498 0.221645
-0.471761 0.107714 -0.279448
-0.054880 0.053237 0.165645
-0.447983 0.184246 0.060625
-0.073751 0.679676 -0.047131
0.314119 -0.138646 -0.200603
0.011515 0.145197 0.099469
0.582557 0.369634 -0.214613
0.640796 0.662516 -0.044324
-0.418897 -0.290403 -0.247777
0.672728 -0.297571 0.001104
0.445505 0.267238 -0.218318
0.568238 0.462044 -0.222126
0.037898 0.232004 -0.247946
0.650528 0.551607 0.121649
0.449545 0.208937 0.272202
-0.096807 0.031148 0.290514
-0.119752 0.624385 -0.287464
0.100663 -0.686182 0.077188
0.044469 0.683794 0.056857
0.351424 0.669192 -0.049536
-0.355231 0.081311 0.086103
-0.702885 -0.298521 0.057311
0.636928 -0.417366 -0.155948
0.198744 0.418613 -0.248190
0.669367 -0.173247 0.072531
-0.215704 0.432865 -0.281776
0.365115 -0.088329 -0.200069
-0.397208 0.690542 -0.002300
-0.528881 0.433774 0.037017
-0.369132 0.686268 -0.055766
0.445603 0.636148 -0.243805
0.334478 -0.066729 -0.203972
-0.238330 -0.192558 0.103157
0.214632 0.260351 0.107488
0.296714 0.125676 0.123252
-0.553692 -0.450413 0.302264
-0.528248 -0.281239 -0.257012
0.103849 -0.383770 0.143288
0.164391 -0.381437 -0.195602
-0.329434 -0.020644 -0.259382
0.163373 0.156950 0.110602
-0.490894 -0.170078 0.287830
-0.567235 0.033612 0.061654
0.145007 -0.698796 -0.094508
-0.659086 -0.153363 0.067350
0.380744 0.663123 -0.129251
-0.662111 0.433721 -0.279443
-0.153148 0.672739 -0.179055
0.192491 -0.617735 -0.177062
0.626071 -0.530713 -0.148969
-0.020826 0.675063 -0.096663
-0.318024 -0.255991 0.101271
0.678836 -0.554127 -0.135929
-0.358818 0.003517 0.112568
0.541112 0.290365 0.131096
0.209340 0.104422 -0.225643
0.430578 0.343122 0.223484
-0.143758 0.083808 -0.251994
0.331313 -0.239504 -0.192280
-0.386626 -0.230776 0.300227
-0.440146 0.369983 0.048405
-0.355692 0.214609 -0.277705
-0.319527 -0.193640 0.096844
0.675075 -0.093521 0.019995
0.051947 -0.086014 0.324722
-0.382489 0.154208 0.176481
0.381255 0.364897 -0.230121
-0.585388 -0.461103 0.264129
-0.198430 0.190103 0.079850
0.254566 0.344671 0.182944
0.049052 -0.213527 0.233494
-0.597410 -0.619302 -0.239089
-0.303406 -0.674079 0.111309
0.347983 0.340382 0.152871
0.017568 -0.388299 -0.206678
0.129012 -0.409385 -0.196454
-0.218355 0.502540 0.056691
0.031414 -0.158495 -0.221470
-0.416103 0.260628 0.057854
0.251528 0.626144 -0.258380
0.675913 -0.657903 -0.123909
-0.629079 0.676770 -0.291026
0.484784 -0.083622 0.152511
0.035035 0.297307 -0.252684
0.028928 0.674698 -0.084116
0.139965 0.489662 0.291862
-0.693941 -0.503570 -0.103005
0.450166 0.373665 0.324280
0.315747 -0.552029 -0.171907
0.376245 0.345669 0.241761
0.399852 -0.689418 0.137140
-0.016662 0.034168 -0.238566
-0.225704 0.176263 0.078661
-0.512293 -0.321721 0.296627
0.095357 0.006569 0.321739
-0.660933 0.242416 -0.303638
0.031604 -0.635854 0.155026
-0.338760 -0.172921 -0.249592
0.469577 0.178712 -0.210306
-0.483092 0.412033 0.042121
-0.093577 -0.065044 0.256843
0.053663 0.045503 -0.233817
0.496415 0.588058 -0.236484
-0.451979 -0.230213 -0.254538
0.144537 0.555925 0.228868
0.357590 -0.423911 -0.177469
-0.550657 0.685773 -0.128722
0.267720 -0.436214 -0.183689
0.693725 0.653883 -0.153671
0.053545 0.282437 -0.250201
-0.456980 0.090956 0.272459
-0.443641 0.675630 -0.240990
0.378830 0.255498 -0.222751
-0.686468 -0.402126 -0.172471
0.470239 -0.266334 -0.179498
0.518965 -0.710797 -0.137973
-0.619892 0.359364 -0.308492
-0.575899 -0.456302 0.146613
0.042014 -0.018315 -0.230323
0.674363 -0.613527 -0.094042
-0.620136 0.685401 -0.159364
0.432774 -0.215809 -0.185937
0.324470 0.211184 0.260451
-0.290145 -0.222899 -0.242314
-0.240051 0.196725 -0.267373
-0.411324 0.264190 -0.285508
0.324971 0.004563 0.243893
-0.640737 -0.411914 0.086661
-0.567301 -0.505005 0.304966
0.003982 0.026898 -0.236440
0.323632 0.254018 -0.226991
0.355374 0.206544 0.202566
-0.522754 0.462555 -0.307982
-0.559531 0.553091 -0.317131
-0.684574 -0.009748 -0.103397
0.693303 0.104821 -0.161044
-0.609445 -0.315633 0.082469
0.612742 -0.529589 -0.150095
0.083581 -0.132820 -0.219140
-0.012087 -0.205511 -0.221642
-0.207830 -0.530971 0.128943
-0.556026 0.037144 0.268386
-0.069626 -0.695174 -0.118148
-0.247608 0.679761 -0.108694
0.614295 -0.011311 -0.185790
-0.130417 -0.674768 -0.198521
0.067887 -0.690154 0.006235
-0.068987 -0.283715 0.122777
0.411468 0.467133 -0.234810
-0.681921 -0.237105 -0.190323
0.481084 -0.133962 -0.187793
-0.456545 -0.526420 0.214623
-0.287138 0.121699 -0.265892
-0.287307 -0.681702 0.003685
-0.020052 -0.086426 0.319087
0.541555 -0.438566 -0.161985
-0.686647 0.184326 -0.031582
-0.505224 -0.146664 0.285085
0.692116 0.082348 -0.151515
0.275235 -0.359348 -0.188410
0.262038 0.114493 -0.222194
-0.390537 0.147783 0.077961
-0.098159 0.065568 -0.247147
-0.411022 -0.678795 0.002235
0.422161 -0.120416 -0.193364
-0.481541 -0.241863 0.293527
0.645011 0.278606 -0.203410
0.653212 0.254469 -0.201096
-0.055331 0.682861 0.006918
-0.608885 -0.363843 -0.257646
-0.491890 -0.184521 0.288750
0.389429 -0.468552 0.192278
-0.417320 0.623291 -0.310796
-0.322571 -0.194947 0.096695
0.082906 -0.619239 0.157913
0.679654 -0.097535 -0.174690
-0.060489 0.270991 0.085111
-0.338947 0.182061 -0.274139
-0.702986 -0.471193 0.017750
-0.242430 -0.423390 -0.224705
0.520322 0.206817 0.266229
-0.498464 0.045164 -0.277226
0.680011 0.219953 0.032380
0.296319 -0.697416 -0.019300
-0.565475 -0.527978 0.152074
-0.656991 0.336621 0.033653
-0.240809 0.123788 -0.262392
0.129010 0.676111 -0.026931
-0.465390 -0.152270 -0.260980
-0.621537 0.011409 -0.284574
0.523132 -0.253393 0.167260
0.495696 -0.087832 0.153660
0.142482 -0.536217 0.156862
0.087326 -0.042781 0.324518
-0.313251 -0.594820 0.125063
-0.400907 0.670353 -0.304079
0.003185 0.671031 -0.147993
0.294058 0.186429 -0.224646
0.355148 0.079783 -0.212471
-0.134713 -0.678993 0.099121
-0.632874 0.401078 -0.312395
-0.397558 -0.530465 0.175747
0.695330 0.301868 -0.139811
0.197413 0.273485 -0.238265
-0.073955 0.556308 -0.279157
-0.684702 -0.088725 -0.120460
0.485039 -0.551654 0.184875
-0.309255 0.282327 -0.278732
0.106769 -0.281243 -0.207059
0.073874 0.579859 0.074335
-0.684505 0.286012 -0.034333
0.681761 0.060020 -0.027308
0.464914 0.585422 -0.238780
-0.202228 -0.598243 -0.209459
-0.237524 0.142660 -0.263437
0.050148 0.370376 -0.256545
-0.232573 -0.485492 -0.219638
0.552590 -0.660100 0.197684
0.503007 0.669492 0.009707
-0.474985 -0.676755 0.009480
0.148506 0.530837 0.289689
-0.566574 -0.069969 0.121332
-0.674255 -0.660022 -0.242320
-0.694063 -0.399745 -0.076933
-0.357699 0.093947 -0.269524
-0.602827 0.355030 -0.306850
-0.028806 -0.377230 -0.211090
0.177351 -0.085104 -0.215062
-0.266579 -0.365389 -0.230613
-0.425497 -0.433706 -0.238392
0.466502 0.461020 -0.230058
-0.696642 -0.619453 -0.096631
0.575943 -0.132859 -0.180407
-0.575494 -0.198954 0.202388
0.500166 -0.322350 -0.173273
-0.079742 0.068905 -0.245929
-0.577638 -0.241251 0.219191
-0.457928 -0.001859 -0.270788
0.362629 -0.233256 -0.190249
0.664408 -0.516900 0.053297
-0.274240 0.583297 0.046714
-0.451930 0.438481 0.042744
-0.123390 0.598501 0.057530
-0.089983 0.036924 0.285299
0.679472 -0.324360 -0.089563
-0.357881 -0.672183 0.119835
-0.651364 -0.510750 -0.250835
-0.683176 0.070417 -0.101926
-0.699706 -0.376154 -0.000787
0.414072 0.659393 -0.172721
0.553768 -0.371804 0.177853
0.437086 0.656513 -0.207255
0.103933 -0.271506 0.289775
-0.609748 -0.365856 0.085916
-0.370556 -0.065802 0.242957
0.060760 0.265208 -0.248443
-0.085769 0.195361 -0.255142
0.357710 -0.482630 -0.173402
0.679553 -0.187391 -0.058195
0.063641 0.197287 -0.243522
-0.106243 -0.372223 -0.217528
0.183466 0.343907 0.145887
-0.505817 -0.137020 0.284372
0.336908 -0.251648 0.358585
-0.447489 0.290587 -0.290177
-0.471392 -0.562323 -0.233114
-0.445313 0.148457 0.068200
0.427917 0.545573 0.177197
0.592211 0.544016 0.117586
-0.451478 0.676530 -0.230434
-0.581068 -0.295297 0.249308
-0.096410 -0.216672 0.115987
0.457690 0.473091 -0.231585
-0.386469 -0.566269 0.117330
-0.586591 -0.392925 0.295295
-0.651575 -0.301161 0.078155
-0.673429 0.676481 -0.080525
-0.376190 -0.316556 0.254130
-0.263481 0.619481 -0.298431
0.614007 -0.346427 -0.162654
-0.571192 0.692500 -0.036031
-0.230343 -0.563207 0.129400
0.220885 0.575273 -0.257275
0.063591 0.653497 0.068438
-0.364546 -0.298233 0.112853
0.432676 0.348655 0.306584
-0.469345 0.338301 -0.295193
0.261759 -0.597029 -0.173044
-0.571918 0.201413 0.049689
-0.339068 -0.553999 -0.223280
0.407317 0.637868 -0.246935
-0.704799 -0.610621 0.007469
-0.386415 -0.375307 0.310232
0.355724 -0.688994 0.127501
0.090035 0.666355 -0.186190
0.481645 0.120106 -0.205307
0.331753 0.204550 0.164351
0.436198 0.660930 -0.141853
-0.575589 -0.016056 0.064429
0.656106 0.233374 0.144080
0.686138 0.188546 -0.051657
-0.452881 0.090134 0.272838
0.458408 0.203870 0.199991
-0.270206 -0.320964 -0.233968
-0.052295 0.671534 -0.160549
0.490772 -0.701882 -0.015502
-0.369431 -0.147109 0.209664
-0.602198 -0.039251 -0.279552
-0.369671 0.529394 0.042932
0.334111 0.213806 0.302946
-0.444904 -0.067258 0.284342
0.675270 -0.211509 -0.010330
0.661541 -0.307295 0.138692
0.244045 0.179533 0.115387
0.598399 0.125753 0.146978
0.219674 0.493293 -0.251704
0.515003 -0.540953 -0.156998
-0.651808 -0.674713 -0.024019
0.672971 -0.199561 0.021232
-0.089813 0.684323 0.016217
0.233596 0.084284 -0.222343
0.500478 0.201685 0.182680
0.388841 0.496012 -0.238585
0.389203 -0.464124 0.224441
-0.401935 0.590805 -0.307341
-0.332274 -0.604476 0.124234
-0.658387 0.272305 -0.305503
-0.692526 -0.105135 -0.026500
-0.017691 0.608499 0.065153
0.505531 -0.223566 -0.179677
-0.568383 0.007875 0.162364
0.208274 0.547417 0.125279
-0.597736 0.131662 0.052479
-0.297209 -0.033853 -0.255934
-0.382147 0.677109 -0.196765
-0.560869 -0.631804 0.108140
0.587961 -0.660971 -0.142965
-0.524534 0.537041 0.030222
-0.665490 0.439494 -0.235825
0.098304 0.648240 -0.271960
-0.483550 -0.503361 -0.238145
-0.410662 0.569015 -0.306521
0.641535 -0.709762 -0.078287
-0.693729 -0.460846 -0.095555
0.661875 0.289125 0.140681
-0.603910 0.025316 0.059342
0.416763 -0.177165 0.153624
-0.438251 0.028081 -0.271309
-0.579211 -0.275243 0.230834
-0.575275 -0.235715 0.190954
0.679098 0.081964 0.011179
-0.426548 -0.172923 0.293089
0.087510 0.322005 0.093228
-0.590406 0.386774 -0.308066
0.502475 -0.464306 0.180210
-0.212486 0.136658 -0.261053
-0.664145 0.670658 -0.197993
0.510889 -0.448632 0.179789
-0.202834 -0.693137 -0.135967
-0.535374 -0.671691 0.063033
-0.027584 0.078609 0.160483
-0.367085 -0.353469 -0.239343
0.536335 -0.268115 0.169316
-0.415974 -0.139598 -0.257968
-0.652444 0.114547 -0.294133
-0.639362 0.514678 0.022735
0.036635 0.488698 0.283801
0.154482 0.557611 0.257550
-0.575440 0.543708 -0.317734
-0.516704 0.160335 0.219170
-0.513931 0.689660 -0.057600
-0.171064 0.080047 -0.253882
0.329515 0.319725 0.112422
-0.583584 0.675911 -0.287381
0.259130 0.677633 0.042736
-0.214735 0.290219 0.071649
-0.544524 -0.332893 -0.254722
0.690694 0.212908 -0.102874
-0.518487 0.677712 -0.237046
0.192350 0.678780 0.035679
0.371985 -0.141215 -0.195874
0.574867 -0.058629 -0.185622
-0.317025 -0.678788 -0.212922
0.247596 0.201434 0.114153
-0.234484 0.580625 -0.293465
-0.152001 -0.256744 -0.229108
-0.429051 -0.593195 -0.227650
-0.288887 -0.502028 0.120567
0.076213 -0.690332 0.006591
-0.360513 -0.628694 0.123686
-0.589778 0.677095 -0.271995
-0.505445 0.566046 0.029719
-0.527227 -0.687991 -0.228822
0.454520 0.412160 0.321962
-0.058333 0.093743 0.097530
0.485985 -0.699145 0.023500
-0.160228 0.669817 -0.225101
-0.267009 0.627722 -0.299278
0.183130 0.463294 0.297080
0.347735 0.430581 0.312289
0.670148 -0.133088 0.072248
-0.163371 0.078325 -0.253158
-0.087616 -0.184235 0.114437
0.318462 -0.692025 0.068935
0.497386 0.498389 0.319375
0.669120 -0.538376 -0.010710
0.536944 -0.502199 -0.157951
0.096156 0.258318 0.098309
-0.586853 -0.494128 0.274651
-0.271456 0.153387 -0.266848
-0.105816 0.558110 -0.281788
-0.382402 -0.684968 -0.079277
-0.118237 -0.689356 -0.049133
0.497779 -0.426992 0.177262
0.058119 0.561487 0.280410
-0.215134 0.684208 -0.030783
-0.497091 -0.138054 -0.264456
-0.220682 -0.342788 -0.228564
0.407778 -0.701839 -0.044835
0.063477 -0.043897 0.322719
-0.586181 -0.411614 0.090932
0.576293 0.283659 -0.209164
0.459325 -0.628854 0.188188
-0.615222 -0.600039 -0.241822
0.690738 -0.038278 -0.177913
0.164747 0.379428 -0.248156
0.510245 -0.269439 -0.176136
-0.687580 0.001771 -0.063083
-0.590109 0.086997 -0.287326
-0.122111 0.678769 -0.078112
0.686239 0.392345 -0.004737
0.517602 0.051787 -0.197757
0.026785 0.454748 -0.264214
-0.598852 0.619246 0.018695
-0.674420 0.214791 -0.177278
0.512747 -0.587421 0.189527
-0.213460 -0.290672 0.111894
0.421124 0.209922 0.276595
-0.242020 0.182964 -0.266576
0.663296 -0.311195 0.115829
0.312192 0.035845 0.302028
0.346721 0.057666 -0.211605
-0.686166 0.255672 -0.020730
0.354118 0.049759 0.339109
0.693224 0.365243 -0.098497
0.675651 0.366124 0.121461
0.387850 -0.454119 0.302707
-0.377563 -0.227265 0.292403
0.215142 -0.541576 0.162948
-0.623958 -0.591553 0.100396
-0.676845 0.046350 -0.186775
0.076471 -0.390137 0.141574
0.049086 -0.509615 -0.195814
0.688201 0.115362 -0.094763
-0.023331 -0.233704 0.122913
-0.471867 0.642744 0.027060
-0.433995 -0.651522 -0.224008
-0.533734 0.686406 -0.113182
-0.631763 0.680590 -0.235153
0.637231 -0.691028 0.198940
0.435833 0.616527 -0.243217
0.040837 -0.227125 -0.215986
0.642192 -0.370419 0.184713
-0.380764 -0.227197 0.300441
-0.277597 -0.610083 0.128922
-0.280457 0.470696 -0.289485
-0.432343 0.690021 -0.022761
0.512362 0.368262 0.329546
-0.472420 -0.457712 -0.240424
-0.104225 -0.685948 0.006646
0.167835 -0.336847 0.187831
0.245390 0.265369 -0.233930
0.268439 -0.572828 0.169300
-0.301173 0.670041 -0.272693
-0.022424 -0.238345 0.123305
0.466726 -0.692883 -0.150296
-0.000607 0.250855 0.091213
0.078312 0.123276 0.106238
-0.597460 0.458095 0.029941
-0.292667 0.486571 -0.291542
-0.357732 -0.006071 0.096711
0.360018 0.544467 0.136213
0.417229 -0.699602 -0.008141
-0.620292 -0.139471 0.069442
-0.420521 0.680941 -0.153609
0.036023 -0.681518 0.123237
0.224098 0.530360 -0.253918
0.602875 0.654319 -0.180004
0.264486 0.043851 0.126372
-0.676344 -0.040005 -0.213457
0.171837 0.676191 -0.010261
-0.178454 -0.684500 0.001373
-0.478402 0.519312 0.035076
0.374674 -0.392086 0.371261
-0.496186 0.683266 -0.146342
-0.549500 0.156356 0.148102
-0.515672 -0.620495 0.110914
0.153504 0.664613 -0.189184
0.467031 0.134104 -0.207424
-0.450101 -0.522877 0.269683
0.039217 0.671452 -0.128697
-0.240660 0.403905 -0.281738
0.375439 -0.181918 -0.192789
-0.538212 -0.324751 0.294797
0.058016 -0.290194 0.133216
0.070759 0.621308 0.071226
-0.381267 0.586109 -0.305390
-0.357146 0.477122 -0.295961
-0.588984 -0.676636 -0.029941
0.515839 0.662311 -0.092524
0.063666 0.501950 -0.264575
0.531999 -0.255460 0.168100
-0.079835 -0.015687 0.309496
0.081098 -0.582408 -0.188266
-0.029013 0.556446 0.173906
-0.420714 0.058861 -0.272056
-0.566295 0.499142 0.029556
-0.525495 0.418640 -0.305162
0.670972 -0.230882 0.038831
-0.158164 -0.696282 -0.166636
-0.325543 -0.681446 -0.006326
-0.210446 0.484903 -0.284959
0.409532 -0.706178 -0.108776
0.608170 0.019862 0.155065
0.014107 0.559185 0.230254
-0.376752 0.193787 -0.277923
0.535949 0.616363 0.108161
0.502359 0.341003 0.217886
-0.369147 -0.323885 0.164320
0.519705 -0.062599 -0.189687
0.666200 0.008347 0.155061
-0.642565 -0.484458 0.091531
-0.457632 0.183878 -0.283600
-0.339172 -0.295420 -0.241158
0.336506 -0.505186 0.289277
-0.663340 -0.508414 0.091552
0.291215 -0.315429 -0.190188
0.665111 -0.316661 0.091839
-0.660786 -0.384923 -0.260272
-0.122489 0.348225 0.099590
0.086242 -0.652887 0.160501
-0.043138 0.558720 0.202654
-0.690054 -0.618158 -0.178704
0.634214 0.670998 0.079516
0.460197 0.381055 0.324558
-0.671498 -0.271785 0.074558
-0.555790 -0.328695 -0.255899
0.672077 -0.350561 -0.003282
-0.603205 0.553293 0.022910
-0.365685 0.019698 0.202255
-0.026249 -0.610387 -0.194776
0.111162 0.679841 0.022133
0.042732 -0.471545 -0.198945
-0.507265 0.692521 -0.012620
-0.539891 0.385611 -0.304012
-0.609212 0.614308 -0.325270
0.659559 -0.697537 0.071226
-0.596224 0.169303 0.049996
-0.581658 -0.306869 0.253958
-0.696558 -0.133066 0.017306
-0.569214 -0.299330 0.100125
0.093775 -0.696562 -0.179380
-0.488026 -0.686030 -0.133256
0.046365 -0.471079 -0.198692
0.343629 -0.404645 0.369687
-0.652381 -0.541917 0.094730
-0.667127 0.643550 -0.167111
-0.140776 0.476946 0.069722
-0.344902 -0.552744 -0.223826
-0.685064 -0.501510 0.089366
-0.159172 -0.695417 -0.154128
-0.575648 -0.277047 0.185848
0.374563 -0.557426 0.176584
-0.196720 0.224862 -0.265908
-0.506817 -0.462939 -0.242769
-0.340792 0.504359 -0.296557
0.055426 0.025529 -0.232298
0.365339 0.659575 -0.187611
-0.276777 0.122594 0.078353
-0.408754 -0.432650 -0.237148
-0.338484 -0.686357 -0.084083
0.494346 -0.695339 0.083168
-0.085668 -0.408264 0.130072
0.194258 -0.190253 -0.206465
0.173972 0.681810 0.074130
-0.668748 0.683373 0.008765
0.632249 0.672539 0.101738
-0.052834 0.518016 -0.274849
-0.324047 -0.162306 0.094323
0.042125 -0.206346 0.236910
0.583539 0.656841 -0.149461
-0.184972 -0.695099 -0.158705
0.106506 -0.692617 -0.016458
-0.523385 0.017394 -0.277267
0.012085 0.261286 0.091491
0.231543 -0.298938 0.353565
-0.004820 0.394487 -0.262535
-0.128201 0.347123 0.081130
-0.219140 0.484239 0.057894
-0.336496 -0.240179 -0.244765
-0.540445 -0.679629 -0.056931
0.269333 0.345669 0.203134
0.617511 -0.031945 0.159380
-0.681795 0.224642 0.039441
0.685730 0.386858 0.000330
-0.150718 0.605023 -0.288562
-0.278061 0.420482 -0.285826
0.147866 -0.511269 -0.187930
-0.155027 0.151083 0.085961
-0.369461 -0.272226 0.180457
0.204401 -0.687432 0.096065
-0.528260 -0.480659 0.306355
0.521500 0.010519 0.250481
0.129138 -0.682885 0.136541
0.319610 0.274842 0.114745
-0.598442 0.568665 -0.321269
0.308323 0.549761 0.196317
0.455341 0.206177 0.336262
-0.484920 0.125115 -0.281686
-0.087673 0.671679 -0.171172
0.162158 -0.695494 -0.039169
0.306974 -0.228461 -0.194958
0.108438 -0.682987 0.127552
-0.441928 0.086008 -0.275601
0.677265 0.651368 -0.197049
-0.124594 0.680884 -0.047523
0.272256 0.311712 0.108472
-0.127622 -0.606311 -0.203032
0.338206 -0.289903 0.361331
-0.234688 -0.436601 -0.223183
0.174234 -0.634903 0.166180
0.094485 -0.344882 -0.203628
-0.685685 0.400253 0.007432
0.358067 -0.151752 0.147251
0.113562 -0.505880 0.152491
-0.242958 0.503381 -0.288794
-0.644124 -0.143673 0.067857
-0.319675 0.161891 -0.271229
-0.030510 0.633030 -0.281041
0.026049 0.483429 -0.266254
0.471163 -0.059679 -0.193707
0.472808 0.675696 0.091117
-0.084253 0.200915 -0.255407
0.421175 0.347454 0.284555
0.243274 0.340860 0.122146
0.640855 -0.423333 -0.155227
0.252091 -0.019897 0.129802
-0.365804 -0.002077 0.198597
0.316722 0.157065 0.328752
0.344336 0.339051 0.131744
0.226195 -0.605082 0.168206
-0.358932 -0.384557 0.106938
0.516485 0.359939 -0.219141
-0.687821 -0.439832 -0.164465
-0.572024 -0.003387 0.205229
-0.449153 0.156190 0.181898
-0.665469 -0.234869 -0.271010
0.163375 0.071759 0.116489
0.672671 -0.176494 0.030444
0.673729 0.233303 0.114090
-0.246939 -0.143355 0.099079
-0.088640 0.677649 -0.082677
-0.110043 0.521573 0.269991
0.286331 0.589958 -0.253141
-0.557233 0.472176 -0.311359
0.266428 -0.691019 0.065102
0.593096 -0.529413 0.191838
-0.583157 0.675879 -0.287701
0.064453 0.347711 0.159489
0.702117 0.650207 -0.205338
0.025620 0.036753 0.314167
-0.173555 0.328209 0.072263
-0.117881 -0.376535 0.125346
-0.485297 -0.669671 0.111185
-0.015092 0.500353 -0.270660
-0.649172 0.685378 -0.170198
-0.468781 -0.487003 -0.238114
-0.156897 0.629673 -0.290751
0.342354 -0.111080 0.143204
0.343220 0.221909 0.120260
-0.461176 0.088474 -0.277286
0.023312 -0.476784 -0.200111
0.462087 0.670016 0.002712
-0.194938 -0.049463 -0.246810
-0.162063 -0.676736 0.122826
-0.362301 -0.677268 0.042566
-0.656012 0.204928 0.042831
0.324394 0.190405 0.185978
0.289730 -0.356423 0.362114
-0.540208 -0.059033 0.276277
0.028213 0.495019 -0.266885
0.473405 0.668383 -0.017489
0.422179 -0.024455 -0.199994
0.642760 -0.695097 0.140394
-0.390870 -0.478879 0.317039
-0.392441 -0.689862 -0.155747
0.480280 -0.602494 0.188014
-0.397633 0.618186 0.034596
0.227390 0.340873 0.116605
-0.604332 0.446296 0.030216
-0.478051 0.212197 -0.287163
0.170793 0.505153 -0.256369
0.233866 0.096295 0.120339
0.180698 0.664323 -0.183678
0.336717 -0.025380 -0.206653
-0.121159 -0.093884 -0.237937
0.438129 0.349428 0.320064
-0.522097 0.446045 -0.306789
-0.481422 -0.674796 0.036307
0.306461 -0.142273 0.142536
0.361314 0.325466 -0.228964
0.472485 0.553085 0.305101
0.602472 -0.138199 0.165540
0.631673 0.663046 -0.039738
0.103030 0.351426 0.228711
-0.485661 -0.446080 -0.242270
0.470782 0.002829 0.270768
-0.637027 -0.060150 0.062644
0.190352 -0.396564 0.150976
-0.640118 0.097602 -0.291993
-0.687342 -0.335688 -0.145830
-0.138030 0.188871 0.084687
0.632397 0.244707 0.141432
0.344759 -0.691090 0.092343
-0.491482 0.157657 0.188433
-0.629265 0.127357 -0.293195
-0.583766 -0.680722 -0.088857
-0.511719 -0.232078 0.290477
0.661863 -0.708559 -0.053047
-0.603004 -0.672547 0.025856
0.256358 -0.683695 0.170449
-0.610566 0.538635 -0.320147
0.333084 0.393218 0.313719
0.440428 0.206059 0.129002
0.110762 -0.692489 -0.013024
-0.534573 -0.530816 0.121020
-0.605105 -0.401108 0.088718
0.134345 -0.622949 -0.181275
-0.395748 0.402263 0.049667
-0.193425 -0.505167 0.128293
0.261005 0.667504 -0.107317
0.567050 -0.033725 0.155533
-0.657859 -0.686783 -0.205819
0.121735 0.257282 0.100393
-0.311410 -0.422089 -0.230221
0.030171 -0.138120 0.326610
0.078652 -0.059685 0.325003
0.093485 -0.659174 0.161505
0.659351 -0.394225 0.145526
-0.604628 -0.193290 0.074393
0.693476 0.277175 -0.122470
-0.150389 -0.678511 0.100642
-0.212744 -0.094896 -0.245071
0.597399 -0.014882 0.156619
0.624373 -0.405244 0.185718
-0.236234 0.512474 0.054598
0.523341 -0.001331 0.224661
0.022954 0.682181 0.025082
0.066098 0.591462 0.072922
-0.375801 -0.475299 -0.231609
-0.008865 0.150632 -0.246001
-0.600204 -0.667723 0.098657
0.495584 0.338124 -0.219277
-0.297038 -0.593960 0.126279
-0.480965 0.426979 0.041255
-0.678475 0.474380 -0.065205
0.487867 0.415563 0.324350
0.527293 -0.696185 0.082481
-0.284617 0.683966 -0.059485
-0.305658 -0.680716 0.011725
0.401354 -0.487124 0.173833
0.132996 -0.300621 0.196912
0.489160 -0.219479 -0.181248
-0.007200 -0.679065 0.144132
-0.592776 -0.421336 0.091085
