-0.273418 -0.207830 0.109346
-0.292995 -0.611343 0.070744
-0.412504 -0.068038 0.267744
-0.487298 0.012244 0.246911
-0.081265 0.205482 0.320567
0.078444 0.468070 0.345981
-0.423609 0.410936 0.147744
0.441862 -0.256730 0.285203
-0.521855 -0.402665 0.091079
0.015076 -0.556317 -0.274913
-0.044994 -0.655260 -0.280706
0.433577 0.546138 -0.078765
0.314221 -0.002372 -0.241636
0.096215 -0.632984 -0.282317
-0.689014 -0.156255 -0.229869
0.156770 -0.364191 0.093509
-0.441979 -0.509460 -0.259900
0.566757 -0.113404 0.292728
0.674510 0.074035 0.283974
-0.074289 0.537839 0.238786
0.503604 0.240340 0.114219
0.089928 -0.464428 -0.269969
0.113008 -0.037172 0.148572
0.918855 -0.061024 -0.228359
0.333246 -0.204845 -0.256731
-0.526364 -0.242689 0.194726
-0.662213 -0.097406 0.168002
-0.679935 -0.259846 -0.205743
0.444491 -0.296176 -0.265884
-0.599950 0.037339 0.330285
-0.110808 0.623949 0.156025
0.397700 0.183443 -0.230089
0.498985 -0.316695 -0.268614
0.676678 -0.095059 -0.256624
-0.080085 -0.397767 0.081346
-0.328184 -0.634733 -0.163334
-0.708035 -0.244703 0.098039
0.833126 -0.075607 0.083819
0.296008 0.696633 -0.175794
-0.312244 -0.174257 0.266639
0.562779 0.105634 -0.239492
0.048577 -0.643932 0.060585
0.167967 0.820636 0.067281
-0.253597 0.264189 0.214506
-0.362218 0.565355 -0.185084
-0.597254 -0.169062 0.226104
-0.759673 0.007455 0.135682
0.153411 -0.096586 0.097821
0.154586 -0.741967 -0.291541
-0.326845 -0.125566 -0.235917
0.514767 0.280963 0.116906
-0.045618 0.844418 -0.172108
-0.265948 -0.423389 -0.258872
-0.196110 -0.622397 0.067731
-0.094818 -0.885102 -0.100891
-0.762079 -0.123549 -0.225833
0.152897 -0.359979 0.091281
-0.757519 0.002794 0.258777
-0.019481 0.803581 -0.175661
-0.177587 -0.574894 0.070748
-0.474847 -0.296851 0.185494
0.130652 0.528486 0.143599
0.155977 0.327134 0.128442
0.695382 -0.243483 0.074809
-0.400373 -0.561490 -0.095402
0.126953 0.027567 -0.235192
-0.243649 0.202056 -0.214096
-0.266722 0.279541 0.184611
0.887931 0.057764 0.061831
-0.639148 -0.125203 0.237477
-0.356812 0.089285 -0.219677
-0.147663 -0.102159 0.104293
-0.436522 0.295309 0.345231
-0.018622 -0.560122 -0.274419
-0.583405 0.102613 -0.213537
0.962973 -0.032708 -0.084867
0.055577 0.257715 0.331272
0.101173 -0.699519 0.055359
-0.348995 0.364145 0.238623
0.024703 0.025219 -0.233027
0.093237 0.767849 0.161784
-0.414088 0.528360 -0.186578
-0.568491 0.035251 0.329415
0.690660 0.064642 0.123723
-0.406318 -0.557359 -0.050375
0.185812 -0.319700 -0.261680
-0.412541 0.131775 0.256613
0.033015 0.904965 -0.169520
-0.872018 0.125369 -0.191885
-0.400179 -0.190421 0.309232
-0.167460 0.299822 0.133850
-0.161119 0.666649 -0.182342
-0.254796 0.465516 -0.194765
-0.085888 0.142909 0.202514
-0.534677 0.060864 0.280107
-0.641213 -0.306627 -0.086736
0.109712 0.730617 -0.183895
0.368434 -0.528869 -0.280995
-0.150951 0.241903 0.129279
-0.171387 -0.609237 -0.274487
-0.078977 0.387931 0.213518
-0.536693 0.175547 -0.209323
-0.066763 -0.921205 0.031193
0.054603 -0.488610 -0.270914
-0.082084 0.173468 0.322530
-0.324186 -0.460100 0.259233
-0.869671 -0.070263 0.033470
0.177530 0.355401 -0.212611
-0.507338 -0.382621 0.092199
0.102093 -0.820768 0.046559
-0.289129 0.494935 0.150755
0.462545 0.518803 -0.148674
-0.051879 0.306215 0.337237
-0.465046 -0.008632 0.190682
-0.060419 0.697674 -0.182395
0.242373 -0.413258 0.278425
-0.084323 0.276697 -0.212330
0.676681 0.288131 -0.071988
-0.006834 -0.776640 -0.290365
0.439608 -0.457105 -0.277424
-0.036531 0.719590 0.161253
-0.332389 -0.559331 0.075409
-0.020522 0.914236 0.000589
-0.906030 -0.023939 -0.128042
-0.350113 0.522926 0.154175
-0.161844 -0.629559 0.066430
-0.341691 -0.439098 0.208437
0.650116 0.069807 -0.244080
-0.230982 -0.489774 -0.264477
0.027201 0.361888 0.339463
-0.347542 -0.199191 0.307395
0.218614 0.775498 -0.110020
0.459556 -0.078482 -0.250466
0.343213 -0.165645 0.099603
0.470418 0.500360 0.060824
-0.275334 -0.116631 0.106160
0.048000 -0.002287 0.312620
0.791505 -0.122085 -0.261203
-0.230757 0.682322 0.162990
0.039855 0.624293 0.152609
-0.147367 -0.424781 0.080927
-0.088229 0.032554 0.228652
0.434155 0.266868 -0.224881
0.193977 0.716342 0.155754
0.288740 -0.042838 0.098622
-0.495491 -0.271431 0.112099
0.073504 0.229654 0.328831
-0.101330 -0.878574 -0.093134
-0.069098 -0.864113 -0.295277
-0.257947 -0.422300 0.289195
-0.479540 -0.476610 -0.115436
-0.085511 0.199300 0.156104
0.048471 -0.521871 -0.273182
0.067976 -0.723797 -0.288248
0.589192 0.072286 0.100097
0.522901 -0.290758 -0.267282
-0.481057 -0.295007 0.283803
-0.015736 -0.076667 0.308690
-0.151924 0.204922 -0.215983
-0.399445 0.258514 -0.206450
-0.229483 -0.641081 0.067141
0.635147 0.327004 0.034878
-0.049506 0.841669 -0.172218
-0.489908 -0.460608 -0.219421
0.261126 -0.476931 0.273387
0.009493 -0.690655 -0.284513
0.455849 -0.163972 -0.256571
0.573614 -0.078413 -0.253065
-0.538977 -0.231791 0.245995
-0.099159 -0.519240 0.072986
-0.288111 -0.329294 0.296618
-0.372843 0.185784 -0.212324
0.124789 -0.815333 -0.209565
0.085977 0.043469 0.315065
-0.094439 -0.835004 0.050016
-0.054574 0.277925 -0.212920
0.763544 -0.041718 -0.254745
-0.050021 -0.138795 -0.243196
0.245036 0.038161 0.105485
0.221333 -0.432207 0.084808
0.052256 -0.146833 -0.246114
-0.479279 -0.471617 -0.224754
0.258680 0.724842 0.059848
-0.275265 0.290005 0.155387
-0.278986 -0.203600 0.144028
-0.687996 0.111805 0.132123
0.179598 -0.111026 -0.246429
-0.756836 0.156054 -0.205708
-0.247576 0.136188 -0.218775
0.289798 0.695569 -0.017150
-0.208246 0.660521 -0.181709
-0.681959 0.154025 -0.207564
0.131836 0.511910 0.307985
0.265863 -0.134299 -0.250084
-0.338874 0.083442 0.122097
0.620812 0.352902 -0.187179
-0.550573 0.076022 0.315211
-0.423748 -0.148989 0.312770
-0.475955 0.197654 0.284374
0.700088 0.128677 -0.240959
-0.128116 0.092741 0.117958
-0.457501 0.180362 0.237291
0.161228 0.470061 -0.203936
0.093827 -0.837426 -0.286650
-0.531680 -0.348135 -0.247355
0.127067 0.394819 0.243552
-0.463062 0.186050 0.241590
-0.610178 -0.015042 -0.221445
0.147765 -0.805129 -0.086536
0.365032 0.451934 0.132704
-0.090718 -0.026260 0.192554
0.025071 0.251751 0.331537
-0.416710 0.045138 0.121101
-0.355930 0.538378 0.155426
-0.272606 -0.560225 -0.268627
-0.502291 0.231907 0.152882
0.063993 0.151302 0.323375
-0.284965 -0.230555 0.303695
-0.305795 -0.539658 0.076227
0.306400 0.367201 0.127908
-0.559520 0.367843 0.147728
0.371185 -0.372691 0.278421
-0.804344 -0.136591 -0.027025
-0.532474 -0.429783 0.077109
-0.241243 -0.249572 0.267819
-0.084907 0.090684 0.299123
0.815189 0.134402 0.071491
-0.259088 -0.565153 0.073314
-0.053946 0.488281 -0.197704
0.124360 0.319228 0.216968
0.698152 0.248138 0.110341
0.185829 0.685987 -0.188864
-0.286966 0.294512 0.319190
0.100068 0.459368 -0.203314
0.122433 0.237316 0.228776
-0.269825 -0.218071 0.242810
-0.262215 -0.098003 -0.235397
-0.568760 -0.319534 -0.244437
0.595650 0.172697 -0.235387
0.661580 0.081755 -0.243477
0.165421 0.544338 -0.198654
0.425231 -0.086083 0.092374
0.205392 0.085640 0.109828
0.698559 0.265601 -0.085696
-0.050045 -0.923482 -0.289235
-0.222098 0.681266 -0.179891
-0.240929 -0.637308 -0.274932
-0.080181 0.317213 0.242215
0.060943 -0.291820 0.085797
-0.400110 0.551581 -0.185216
0.172783 0.244148 -0.220557
0.279482 -0.189135 -0.254365
-0.253777 0.264001 0.222351
-0.655146 0.065912 -0.214557
0.672100 -0.275092 0.073052
0.387056 0.209094 0.114618
-0.381890 -0.583729 -0.040462
-0.173408 -0.319461 0.226029
0.670436 -0.312579 -0.056880
0.690569 -0.262467 -0.269062
-0.003106 -0.952064 -0.044493
-0.828842 -0.032239 0.124910
-0.163855 0.064225 0.116709
-0.243559 0.400902 -0.199700
0.569527 0.355459 0.121049
0.860623 0.038652 0.091464
0.631103 -0.325649 -0.272279
0.094094 0.379106 0.339182
-0.673683 -0.012887 -0.219839
0.681952 0.281113 -0.042305
-0.356350 0.561655 0.157121
-0.083288 -0.888892 -0.275831
-0.317148 -0.302067 0.299253
-0.715140 0.221003 -0.201957
-0.574094 0.107407 0.181317
-0.439937 -0.127249 0.314714
-0.717769 -0.045360 -0.221183
0.563002 0.383038 -0.219412
0.100240 0.517380 0.349053
-0.535212 0.045607 -0.218765
0.136686 -0.534983 0.066461
-0.375223 -0.580735 -0.249207
-0.111506 -0.863060 -0.191217
-0.698758 -0.114803 -0.226645
0.677090 0.290023 -0.120235
0.422094 -0.167867 -0.256082
-0.162399 -0.810825 -0.155749
0.253555 0.463808 0.136109
-0.293922 0.303805 0.279349
0.128884 0.425353 0.283487
0.071632 -0.557004 -0.276255
-0.295822 0.358048 -0.201610
-0.203047 -0.401339 0.289459
-0.359259 -0.133490 0.312420
0.280659 -0.176343 0.089140
0.202372 0.461342 -0.205507
0.523165 -0.019815 -0.247670
0.519616 0.451712 -0.011784
0.723375 -0.164948 -0.262751
0.432252 -0.543078 0.059126
-0.348075 -0.467762 -0.260209
-0.572320 0.058497 0.331186
0.333170 0.486256 0.135917
-0.309656 0.156195 0.131014
0.123296 0.344524 0.146447
-0.251290 0.500788 0.150315
0.389205 0.157423 0.110828
-0.074910 0.548518 0.202086
-0.503885 -0.199139 0.310969
-0.406485 -0.317683 0.300162
-0.060132 0.831796 -0.172690
0.616042 0.344097 0.100374
-0.676639 -0.273187 -0.001443
0.699119 -0.098984 -0.257421
0.280974 0.451358 0.134582
-0.363595 0.605856 -0.177550
0.048871 0.955491 -0.111525
0.010252 -0.728250 0.055355
0.771434 0.137763 -0.241930
0.715025 -0.144672 0.081515
0.003793 0.248515 0.331788
0.140655 0.045680 -0.234194
0.207249 -0.134045 0.093879
-0.353506 -0.129955 0.254889
0.035399 0.420106 -0.204680
0.416089 0.169800 -0.231496
0.104347 0.626324 0.151283
0.926129 0.016853 0.070580
0.199123 -0.598422 -0.282165
-0.378479 0.168598 0.334731
0.523110 0.325689 0.119954
-0.277776 -0.624876 0.069417
-0.941551 0.009711 -0.045043
-0.447164 0.359982 -0.198014
-0.035607 -0.752597 0.054639
-0.224410 0.638493 0.159672
-0.266071 0.080617 0.120230
0.737826 0.222776 -0.060719
0.673136 -0.270002 -0.269210
-0.238053 -0.039794 0.110872
0.019737 -0.598101 0.064562
-0.376451 -0.590647 -0.016544
0.363243 -0.462841 -0.276096
0.041238 0.315598 -0.212380
0.068131 0.925113 0.095176
-0.480177 0.007781 0.182930
-0.761617 0.009271 0.140764
0.531297 0.435827 0.060888
0.056608 0.944604 -0.055773
-0.736509 -0.204754 -0.104614
0.846956 0.108884 -0.097677
0.253386 0.204980 0.117373
0.110293 0.145997 -0.226237
-0.041421 0.900603 -0.065057
-0.075940 0.475958 0.239825
-0.273082 0.075578 -0.222581
-0.723605 -0.138941 -0.227826
-0.715591 -0.224200 -0.161197
0.098326 0.856162 -0.174545
-0.475148 -0.444558 -0.255627
-0.244756 0.372223 0.140857
-0.105032 0.179737 0.123730
0.283802 -0.220685 0.086157
0.108987 -0.633809 0.059938
0.273697 0.215907 -0.224906
-0.480303 -0.461089 -0.256706
0.296278 -0.209992 0.098175
-0.425422 0.271534 -0.204914
-0.359278 -0.318629 0.299015
0.159746 -0.089550 -0.244421
-0.807115 -0.109611 -0.223795
-0.093697 -0.890161 -0.020590
0.083906 0.712219 -0.184637
0.394847 -0.490638 0.063777
-0.237317 0.247076 0.211521
-0.191963 -0.360539 -0.256010
0.300669 -0.519985 -0.278804
-0.171919 -0.314805 0.096702
-0.177299 0.685022 -0.180642
-0.248702 -0.241508 0.264538
0.279044 -0.437857 0.275807
0.285533 -0.121273 0.093017
0.576865 -0.314278 0.072389
-0.057912 -0.211762 -0.248299
-0.075341 -0.026427 0.313688
-0.268378 0.280571 0.199666
0.074275 0.302145 0.334062
0.346643 0.632902 0.032899
-0.236168 -0.202264 0.099066
0.460722 0.506145 0.134444
0.587477 0.328820 -0.223896
0.094828 0.730181 0.159020
0.325987 0.307210 0.123117
-0.725907 -0.086577 -0.223982
-0.303727 0.434735 -0.195877
-0.726056 -0.201579 0.110302
-0.087497 0.102268 0.182012
-0.099984 -0.378941 0.083164
0.190445 -0.406306 0.226703
-0.393428 -0.571393 -0.042655
0.192269 0.132692 0.113534
-0.672732 -0.281767 0.090640
-0.690025 -0.261077 0.041678
-0.521306 -0.250780 0.307628
-0.457931 -0.502650 -0.050394
-0.700753 0.281493 -0.126118
-0.106640 0.194451 0.124832
-0.542398 -0.039365 -0.224754
-0.523562 -0.436493 0.020331
-0.238569 -0.340827 -0.253519
-0.559311 -0.391234 -0.132472
-0.599580 0.130721 0.258061
-0.663764 0.259450 0.142260
-0.110583 -0.379363 0.083375
0.180288 -0.046592 -0.241780
-0.303296 -0.476811 0.146549
0.168157 0.032794 0.106852
0.304826 -0.468681 -0.275185
-0.304534 0.312422 0.333962
0.078990 0.074615 0.317480
0.654512 0.170950 0.105749
0.091123 0.239167 -0.219053
-0.487902 -0.412421 0.089598
-0.108602 -0.811075 0.052072
-0.078051 0.370171 0.270264
-0.314330 -0.168655 0.196277
0.409744 -0.121722 0.295712
0.586862 0.207163 0.109916
0.333682 -0.501975 0.064352
-0.733446 -0.213347 0.006298
0.895451 -0.091744 -0.137551
-0.302318 0.127832 -0.218130
0.511259 -0.340742 0.071972
0.137939 0.050167 -0.233807
0.299527 -0.174590 0.088837
-0.234433 -0.729695 -0.254842
-0.272086 -0.431620 0.288843
0.156065 0.770662 -0.182054
-0.075978 0.754796 0.164703
0.353327 -0.062189 0.095746
-0.355727 -0.560650 0.075847
0.047419 -0.148910 0.096453
-0.057914 -0.929518 0.009045
0.547828 -0.147515 0.290691
-0.932547 -0.005628 0.075194
-0.381133 -0.000377 -0.225613
-0.510222 -0.304212 0.097942
-0.423486 -0.051014 0.156037
0.131378 -0.145632 0.094773
-0.102562 0.755380 0.165352
-0.587828 0.121219 0.196791
0.098012 -0.824597 0.046375
-0.211836 0.371045 -0.202587
-0.155393 -0.817750 -0.166138
0.008471 -0.280403 0.087822
-0.185408 -0.303300 0.154644
-0.152392 -0.416694 -0.260980
-0.220580 -0.555027 0.073168
-0.420804 -0.536302 -0.168661
0.446221 0.530961 -0.041921
-0.068190 -0.913788 -0.091325
0.893755 -0.092983 -0.141463
-0.747636 -0.187123 0.111841
-0.776017 -0.049243 -0.220134
-0.473651 0.206744 0.339667
-0.192545 0.336522 -0.205527
0.522797 -0.058780 -0.250483
-0.503827 0.381801 0.147467
-0.166915 0.244511 -0.212774
-0.243857 -0.666683 -0.276992
0.325849 -0.046841 0.097485
-0.478856 -0.475506 -0.153385
0.093832 0.392870 0.340184
0.230191 0.656385 0.150586
-0.258112 -0.225862 0.146862
0.000910 0.004387 -0.233992
-0.673104 0.090617 0.175589
0.325206 -0.478045 0.271843
-0.196911 -0.308288 0.296056
-0.303478 0.133173 -0.217717
0.198970 0.065531 -0.234088
0.674709 0.288177 -0.029581
-0.718323 -0.038609 0.182045
0.395343 0.364281 -0.216941
-0.124490 -0.148724 0.100392
-0.388917 -0.088650 0.176653
0.208390 0.785114 -0.084701
0.480941 0.135775 0.107166
-0.059414 0.864488 0.137649
-0.787084 -0.083058 -0.222330
-0.339921 -0.227432 0.305176
-0.956017 0.026594 -0.077191
-0.759612 -0.002318 -0.217111
0.792326 -0.013485 0.089248
-0.485672 -0.184510 -0.236558
0.579167 -0.374687 -0.274644
-0.564367 -0.387639 -0.095889
-0.153906 -0.608264 -0.274816
0.726659 0.242169 -0.217505
-0.604780 -0.217531 -0.236229
-0.125239 0.342380 -0.206640
-0.411391 0.341323 0.147102
0.012008 0.744790 0.161969
-0.758553 -0.055435 0.121625
0.031455 0.969437 -0.062598
0.248652 -0.668214 0.054258
0.718225 -0.185960 -0.264154
0.287618 0.691225 0.120911
0.087886 0.907298 0.030357
-0.787059 0.115531 0.134655
-0.024859 0.582151 -0.191571
0.810900 0.132351 0.099383
0.413776 -0.079866 0.093086
-0.175220 -0.098916 -0.237450
-0.558400 0.054936 -0.217560
-0.733193 -0.024904 0.224713
-0.142764 0.069007 -0.226033
-0.141519 0.598070 -0.187755
0.094723 -0.336155 -0.260791
0.183816 0.518478 0.141660
-0.199794 0.733705 -0.176603
-0.413853 0.453598 -0.191996
-0.778509 0.214307 -0.195273
-0.447576 -0.430308 -0.255225
0.935085 -0.073444 0.067258
0.147815 -0.355300 0.105957
-0.156164 -0.365393 0.085427
-0.288377 -0.198394 0.242538
0.399205 0.585914 -0.148110
0.338450 -0.180829 -0.255111
-0.030551 0.738400 -0.180128
0.120590 0.619041 -0.192222
0.368252 0.156593 -0.231360
0.493579 0.066515 0.101862
0.756318 0.209243 -0.186605
0.258768 -0.198560 0.088032
0.124949 -0.046874 0.102070
0.087290 0.734437 -0.183106
0.443538 0.527223 -0.206244
0.513241 -0.153711 -0.257139
-0.747726 0.196382 -0.202996
-0.159806 -0.787624 0.054939
-0.664421 -0.098387 0.236881
-0.253488 0.202544 0.128771
-0.475940 0.450931 -0.190772
-0.381522 -0.149881 0.311741
-0.075046 0.473723 0.278323
0.565137 0.013914 0.301984
-0.276719 0.202511 0.334863
0.195610 -0.141699 0.093591
0.253133 0.736126 -0.052292
-0.014651 0.082417 -0.227987
-0.353636 -0.602930 -0.263435
0.691145 0.170570 -0.237722
0.279316 0.122196 0.110787
-0.164173 -0.113350 -0.238747
-0.471848 0.019874 0.120531
-0.365230 -0.286823 -0.246716
0.496680 -0.285690 -0.266316
0.252432 -0.467689 0.137063
-0.398802 0.117519 0.250273
0.377450 0.604426 -0.053771
-0.003502 -0.922594 0.041597
-0.341777 -0.060344 0.111753
-0.252916 -0.718898 -0.072377
-0.013630 -0.938133 -0.298678
0.688913 0.268508 0.066128
-0.052926 0.587310 -0.190557
0.472805 0.498167 0.053829
-0.290418 -0.550563 -0.267521
-0.487986 0.232789 -0.206291
-0.714432 -0.230028 -0.065747
0.319322 -0.558413 0.060594
-0.395146 -0.498215 0.081268
-0.259607 -0.223415 -0.244537
-0.853286 -0.082894 -0.064809
0.466252 0.130912 -0.235458
-0.336193 0.402399 -0.197477
0.514514 0.434740 0.128046
0.489368 0.286098 0.117857
0.178366 -0.534969 -0.277096
-0.540101 -0.225054 0.130918
0.704049 -0.231729 0.075462
-0.075742 -0.101641 -0.239919
0.427535 0.556674 -0.164490
0.055992 -0.307945 -0.257864
0.258690 -0.471598 0.080539
0.859983 0.094697 -0.089812
-0.169050 -0.356628 0.291920
-0.341237 0.142893 -0.216151
-0.099863 0.521156 0.148332
-0.401271 -0.377080 0.231991
-0.015502 -0.528486 0.070407
0.040961 0.858870 0.169568
0.151826 0.349420 -0.212457
-0.280565 0.681446 -0.178543
-0.461458 0.177439 0.131702
-0.081101 0.366529 0.151265
-0.555547 -0.049408 -0.225181
-0.073929 0.466883 0.330846
-0.246062 -0.240315 0.181724
0.734100 -0.197571 0.077249
0.613596 0.296042 0.115741
-0.701262 -0.240044 -0.147580
0.354369 0.389358 0.128417
0.793476 0.160737 0.002604
0.168301 -0.005598 0.104069
0.413915 0.128045 -0.234470
0.389054 -0.124671 -0.252200
-0.805873 -0.138297 0.041986
-0.046178 0.236808 -0.216089
-0.551564 -0.334091 0.096723
-0.471157 0.329150 -0.199698
-0.568547 -0.381728 -0.126618
-0.873769 0.093579 0.128495
-0.224254 -0.739917 -0.266611
0.125444 0.400133 0.172314
-0.245871 0.272330 0.133650
0.663330 -0.320952 -0.039462
-0.018561 0.659909 -0.186085
-0.176800 -0.307944 0.090058
-0.485809 0.399671 0.148349
-0.856945 -0.073577 -0.177634
0.057368 0.789368 -0.178445
-0.854437 -0.037935 -0.217525
0.522171 0.374875 -0.219070
0.259030 -0.480023 -0.274960
-0.226841 0.237177 0.186519
-0.108335 -0.869515 -0.127032
-0.424164 0.517845 0.147925
-0.134365 -0.845339 -0.056168
0.603647 -0.122929 0.291196
-0.082194 0.167042 0.325128
0.009374 -0.904742 0.042596
0.306857 -0.590716 0.058540
-0.635387 -0.132313 0.302258
0.511548 -0.281271 0.281835
-0.313165 0.465521 0.149174
-0.295737 0.312224 0.144616
0.784117 -0.118187 0.081855
-0.343057 -0.138921 0.211118
0.304995 0.412994 -0.211351
0.802183 -0.136572 0.080111
-0.357320 -0.216100 -0.241776
0.026433 0.296931 0.334777
-0.089063 0.014636 0.214603
-0.314703 0.330343 0.185772
-0.921054 -0.005951 -0.170841
0.324944 0.657993 -0.010474
-0.034968 0.567673 -0.192389
-0.070370 -0.357025 -0.258533
0.103728 -0.112294 -0.244788
-0.104237 -0.832026 0.050455
0.751558 0.211203 -0.122601
0.764338 -0.101281 0.083530
-0.558441 -0.111681 0.318547
-0.345486 0.160733 0.333408
0.161816 -0.375562 0.218438
-0.280181 -0.690095 -0.070371
-0.263552 -0.366249 -0.254789
0.128404 -0.099703 0.098166
-0.046005 -0.929386 -0.255577
0.178701 0.808363 0.085831
-0.083353 -0.089613 0.103732
0.383192 -0.106694 0.091842
-0.082674 0.635014 -0.186423
0.619859 -0.322071 -0.271763
-0.467084 -0.049677 0.320951
0.740048 0.217939 -0.009236
0.773391 -0.030206 0.272181
-0.352479 -0.605573 -0.234031
0.839479 0.087074 0.095452
-0.126336 -0.688221 -0.281235
-0.415037 0.130774 0.332285
-0.084968 -0.494792 -0.268174
0.058980 0.946909 -0.155779
-0.669282 0.250277 -0.200885
0.686359 -0.278094 -0.263108
0.470137 0.504399 -0.016781
-0.720347 0.168867 -0.205613
0.631170 0.068125 0.304401
-0.022735 0.378266 -0.206382
-0.833890 -0.105454 -0.023301
0.313653 -0.419216 -0.271805
-0.388439 0.217780 0.338520
-0.265012 -0.093966 0.107565
-0.412799 -0.068832 0.290685
0.211840 0.779772 -0.049732
0.696696 0.182357 0.105612
0.092469 0.347806 0.336953
0.049841 -0.451512 0.074488
0.207281 0.790523 -0.172515
-0.396965 0.371881 -0.198299
0.890249 0.067511 -0.191380
-0.272220 -0.215026 0.232293
-0.244633 -0.240792 0.160199
-0.669446 -0.089171 0.156192
-0.064150 0.722890 0.162123
-0.524869 0.310410 0.142778
-0.067423 -0.916497 -0.051995
-0.289477 0.302623 0.206151
0.408925 0.009515 -0.242938
-0.621829 -0.145262 0.272759
0.129851 0.493642 0.247864
0.171590 -0.235035 -0.255225
-0.150471 0.179967 -0.217823
-0.078318 0.437838 0.185554
-0.526748 0.225905 -0.205904
0.332791 -0.474286 0.266606
-0.370424 -0.195383 -0.239977
-0.336034 0.160152 0.333151
0.628675 0.151303 -0.237690
0.211001 0.449685 -0.206548
0.822586 0.030485 -0.250866
-0.449496 -0.517277 0.067576
0.181413 0.231978 -0.221636
-0.154364 0.615524 0.156409
-0.307648 0.156423 0.332232
-0.023704 -0.072105 0.103638
0.264391 0.715845 0.120901
-0.659815 -0.289450 -0.034013
-0.135344 -0.848842 0.038022
0.131929 0.657807 0.152933
-0.373609 -0.407478 0.254349
-0.500600 0.476545 -0.183171
-0.281314 0.401413 0.143805
-0.084904 -0.893107 -0.152842
0.564274 0.413688 -0.204976
0.022198 -0.563734 0.066994
-0.391984 0.277902 0.342954
0.087607 0.469273 -0.202312
-0.825368 0.169536 -0.191426
0.369846 -0.212182 0.290073
-0.263598 -0.598725 -0.271620
-0.694190 -0.208245 -0.233515
-0.266791 -0.659126 0.066686
0.133081 0.521158 0.348058
0.128640 0.451505 0.245063
0.225943 0.210583 -0.224202
-0.445263 0.038894 0.121301
-0.621916 -0.325931 -0.110568
0.226774 -0.107423 -0.247246
-0.745236 -0.006054 0.330461
-0.421412 -0.537059 -0.139581
-0.044089 -0.192603 -0.247228
-0.163630 -0.328445 0.197407
-0.606767 0.307711 0.144453
0.057088 0.912058 -0.169556
-0.082495 0.155537 0.325550
0.317883 0.659969 0.103825
0.298549 -0.674832 0.047462
0.660188 0.093224 0.200830
0.708722 0.015802 -0.249329
0.158829 -0.247281 -0.255820
0.769021 0.192112 -0.110549
0.320353 -0.467027 0.272751
-0.369771 -0.593041 -0.113779
0.118054 0.839616 -0.176193
-0.429182 -0.018195 -0.225806
0.617876 0.344432 -0.223460
0.005304 0.934700 0.043240
-0.481254 -0.292236 -0.244459
-0.079511 0.350796 0.232538
-0.788794 -0.149870 -0.093501
0.088441 0.183506 0.325149
-0.217609 -0.596271 -0.272493
0.023662 0.581127 0.355417
-0.340112 0.022240 0.117694
-0.120135 0.623988 0.156240
-0.623825 0.300033 -0.198320
0.810370 -0.178868 -0.068518
0.111370 -0.065029 0.101066
0.433390 0.069781 -0.239133
-0.038166 0.414138 -0.203432
0.538370 -0.268181 0.282170
-0.352033 -0.474989 0.081965
0.686810 0.277016 -0.064144
0.235178 0.620963 -0.194699
0.593520 0.171682 0.107195
0.108544 -0.456061 0.072818
-0.609824 -0.343145 -0.019357
0.392780 -0.399924 0.080420
-0.512884 -0.259561 0.248301
0.534913 -0.145036 0.291165
0.631551 0.088417 0.303729
-0.831753 -0.107303 -0.031929
-0.263161 0.477096 0.148871
-0.612181 -0.342721 0.023691
-0.320445 -0.491462 -0.262556
-0.490779 0.218198 0.184160
-0.537694 0.070236 0.152007
-0.382436 0.098849 0.277683
0.500024 0.379305 0.124363
-0.403739 -0.562578 0.001179
0.265327 0.105514 -0.232708
-0.570348 0.098391 0.285987
0.049514 0.199424 -0.220981
-0.914947 -0.010828 -0.203977
-0.491430 -0.201060 0.310546
0.578760 -0.286040 0.074391
-0.073926 0.460328 0.338102
-0.577479 0.111130 0.178498
0.157312 -0.093198 0.097977
-0.264015 0.259296 -0.209486
-0.480817 -0.171266 0.312461
0.677386 -0.219324 -0.265637
-0.478196 0.200819 0.267993
-0.170109 0.298995 -0.208756
0.298729 -0.536417 -0.279950
0.685939 0.275163 -0.006547
0.315664 -0.518885 0.063540
0.728119 0.238760 -0.178857
-0.102177 -0.170280 -0.244285
0.425643 0.433729 -0.212605
0.782827 -0.194740 -0.177303
0.115304 0.069994 0.124087
0.084175 0.534608 -0.197503
0.067401 -0.116905 0.098314
-0.170757 -0.316278 0.101696
-0.206647 0.398464 -0.200720
-0.441307 0.167654 0.144847
-0.221089 -0.305084 0.296841
0.209678 0.585130 0.145895
0.355096 0.248329 -0.224418
0.723098 0.022276 0.289341
0.668052 -0.021506 -0.251101
0.043806 -0.166629 -0.247354
-0.217478 -0.762533 0.053597
-0.614059 -0.155259 0.309305
0.887204 0.065410 -0.080828
0.123309 0.311006 0.183592
-0.076483 0.510717 0.179954
0.513275 -0.341800 -0.270758
-0.152722 -0.022203 -0.232409
0.095085 -0.864063 0.009264
-0.354930 -0.277445 -0.246273
-0.639845 -0.305177 -0.146885
-0.208762 0.235662 -0.212459
0.767480 -0.117269 0.082301
0.125316 0.847435 0.166814
-0.320549 -0.302947 -0.248904
-0.181937 -0.529254 0.074152
-0.183441 0.289599 0.133475
0.275076 0.704634 0.118525
-0.951627 0.015152 0.063651
-0.575820 0.323361 0.144879
0.786607 0.179486 -0.235319
0.118191 0.492136 0.346815
-0.004754 -0.492467 -0.269838
0.280511 0.699150 0.112794
-0.512323 -0.295153 0.098646
0.553591 -0.090684 -0.253497
-0.103185 0.669770 0.159168
-0.287805 0.116292 -0.219297
0.269205 0.711336 0.108582
0.053690 -0.372276 0.080137
0.118385 -0.206137 -0.251918
-0.113304 -0.868984 -0.028767
-0.035375 -0.520934 0.071407
0.155443 0.404019 -0.208586
0.545411 -0.161260 -0.258420
-0.091252 -0.771910 0.054511
0.754501 0.211008 -0.183268
-0.500513 0.030580 0.157117
-0.436662 -0.410887 0.088539
0.464605 -0.073419 0.297956
-0.431777 -0.339536 0.123940
0.469900 -0.092577 0.296448
0.113879 -0.018953 0.163774
0.172954 0.621816 0.149390
-0.443954 -0.422425 0.087870
0.640691 -0.191799 -0.262807
0.098766 0.669128 0.154510
0.126788 0.303849 0.331705
-0.402590 -0.381611 -0.252726
-0.256141 -0.718286 -0.014164
-0.766622 0.193152 -0.202798
-0.768802 -0.112207 -0.224858
-0.336294 0.352938 0.191802
0.412383 0.175884 0.111635
0.216501 0.464519 0.137007
-0.083525 0.387074 0.138251
0.442191 -0.101374 -0.251727
-0.162994 0.580925 0.154101
-0.693600 -0.062289 0.129631
-0.363435 0.383791 0.148568
-0.528271 -0.241475 0.211468
-0.309065 0.066757 -0.222398
-0.202787 -0.282787 0.111223
-0.019285 -0.494782 -0.269673
-0.445947 0.312458 0.141124
0.750476 0.000949 0.129726
0.236535 0.050507 0.106573
-0.657449 -0.295653 0.042656
0.150582 -0.630751 0.059210
-0.034397 0.323774 0.338110
0.115769 -0.034680 0.308727
0.194936 0.561073 -0.198116
0.439727 -0.501988 -0.280677
-0.071446 -0.710184 -0.284078
-0.197821 -0.414838 -0.259808
0.040518 0.386964 0.340974
-0.405478 0.447275 -0.192645
0.676714 0.285421 -0.016510
-0.326884 0.520059 0.153437
-0.435203 -0.230469 -0.241038
-0.459920 0.198013 -0.209450
0.572579 -0.087333 -0.253687
0.622037 -0.196827 -0.262745
-0.227779 -0.264470 0.280809
0.090249 0.153017 -0.225271
0.129110 0.398452 0.321972
-0.906571 0.063448 0.118334
0.254366 -0.029052 0.100405
0.793240 -0.044975 0.086947
0.435602 -0.106863 0.296197
-0.948534 0.051610 -0.178656
-0.549837 -0.406701 0.091426
-0.667630 -0.086129 -0.225280
-0.297272 0.268060 -0.208092
0.899419 0.013116 -0.253878
-0.768689 -0.103288 0.118392
-0.396646 0.115649 0.241626
-0.100680 -0.751317 -0.286389
0.751282 -0.007463 0.286541
-0.225184 0.231125 0.185507
0.966373 -0.039872 0.025567
-0.087503 0.101156 0.183000
0.126966 0.480106 0.146299
-0.108397 0.673546 0.159560
0.879758 0.079799 -0.215606
-0.330648 -0.050434 0.112216
0.198305 0.795801 -0.084645
0.326371 -0.306940 -0.263966
-0.077029 0.492591 0.177727
-0.433808 0.025825 -0.222513
-0.208312 -0.220417 0.097115
-0.304949 -0.268058 -0.246734
-0.790434 -0.042697 0.123276
0.042124 -0.498592 -0.271351
-0.495722 -0.087001 0.318902
-0.865923 0.122899 -0.104197
-0.069949 0.595448 0.350877
-0.266017 -0.219666 0.192169
-0.360721 -0.246824 -0.243923
-0.357506 -0.608027 -0.072583
-0.709313 0.060013 0.136130
-0.820502 0.145460 -0.205021
0.161878 -0.539585 -0.277054
0.337375 0.638190 0.127026
-0.052290 -0.343799 -0.257988
-0.278067 -0.573776 0.073123
-0.316606 0.284770 -0.206441
-0.525412 -0.110199 0.317900
-0.816900 -0.047537 -0.219077
0.224669 0.763586 0.003955
-0.031427 -0.602650 -0.277206
-0.036711 0.708348 -0.182163
-0.080369 0.346768 0.202348
-0.710152 0.279043 -0.194781
-0.045269 -0.772939 0.053387
-0.691889 0.296154 -0.192697
-0.442246 0.311475 0.153552
-0.221884 0.241127 0.130843
0.265997 0.353546 -0.214765
-0.694530 0.234366 0.141146
0.595386 0.042623 -0.244799
-0.537043 0.121136 0.129352
0.095636 -0.048123 -0.239957
0.486646 0.481301 0.099383
0.169990 -0.378793 0.105721
-0.781040 -0.045643 0.122848
0.100969 -0.551050 0.066113
0.024521 -0.482032 0.072856
0.116035 -0.380910 0.078088
0.610922 -0.093260 -0.254992
-0.761790 -0.177824 -0.107364
-0.425101 -0.351911 0.233854
-0.499582 -0.331992 -0.246919
-0.175685 0.449665 -0.197720
0.835449 0.015967 0.090396
0.649361 -0.132031 -0.258677
-0.619750 0.218821 0.138313
0.306125 -0.491601 0.182008
0.454321 -0.087804 -0.251021
-0.099195 0.663324 -0.183996
0.062306 -0.037666 -0.238439
0.119314 0.172009 0.174338
0.047591 0.955227 -0.077895
0.778696 -0.075110 0.085098
-0.078140 0.462632 0.165647
-0.091183 -0.045596 0.194928
-0.382479 -0.576423 -0.179087
0.264386 -0.697289 0.051793
-0.129155 -0.844708 -0.183839
0.307646 0.198664 -0.226930
0.251074 0.736734 -0.019630
0.335659 0.567953 -0.200832
0.057459 0.735108 0.160230
-0.380644 -0.398751 0.228013
0.119853 0.702533 0.156447
-0.435434 -0.342150 0.258598
0.003200 0.943115 -0.067442
-0.058895 0.833328 0.169999
-0.203520 -0.398994 -0.258531
0.561148 0.404399 0.056463
-0.264289 -0.023438 -0.229951
-0.022855 0.019880 0.315843
0.350954 -0.429826 0.274746
-0.701658 0.067628 0.132295
0.224149 -0.276953 0.083331
-0.717528 -0.029757 0.328112
0.517509 0.048993 -0.242559
-0.000501 -0.213128 -0.249709
-0.081651 0.251609 0.254628
0.565074 0.405281 -0.048139
0.509782 -0.357672 0.070779
0.438837 0.516100 0.135664
0.121411 0.144310 0.289165
-0.095495 -0.453496 0.077663
-0.576190 0.019106 -0.219748
-0.764419 0.005316 0.126158
0.760920 0.198780 -0.070745
-0.124379 0.757398 -0.176610
0.655368 0.264424 0.112498
-0.699945 -0.250291 0.036061
0.044133 -0.736282 -0.288607
0.093702 -0.005463 0.311346
-0.074366 0.596048 0.172095
-0.293146 0.304400 -0.205555
-0.504330 0.032243 0.206538
-0.453741 0.193633 -0.209908
0.410848 0.433329 -0.212296
-0.143978 0.041103 -0.228025
-0.587239 0.172182 0.134194
-0.416062 0.444234 0.149983
-0.089019 -0.014233 0.247940
-0.113459 0.531355 0.149381
0.003174 -0.479808 -0.269102
-0.257916 -0.458168 0.286598
0.228609 -0.440307 0.092863
-0.326763 0.430035 -0.195691
0.698879 0.038410 0.300703
-0.087988 -0.077267 -0.237875
0.927425 0.018086 0.016506
-0.157415 -0.279722 -0.250948
0.808420 -0.185709 -0.015428
-0.073427 0.000200 -0.232598
0.230517 0.629645 0.148643
0.102449 0.755743 -0.181909
0.793547 0.048576 0.093714
0.195080 -0.151555 0.092889
0.083543 0.162802 -0.224409
-0.128882 0.612217 0.155588
-0.131914 0.232182 -0.214466
-0.631877 -0.133802 0.255980
0.150074 0.108258 0.112729
-0.034573 -0.951604 -0.046029
-0.459831 0.183523 0.222959
-0.237097 -0.627220 -0.274289
-0.516276 -0.196300 -0.236713
0.174739 -0.502518 -0.274664
0.448926 0.507343 0.134800
0.435045 -0.242526 0.286387
-0.197656 -0.768739 -0.253577
0.481140 0.500340 -0.174546
-0.085547 0.850361 0.024517
0.132661 0.624788 -0.192081
0.703009 -0.266466 -0.218960
0.422669 0.352542 -0.218415
-0.452847 0.362084 0.144875
-0.821795 -0.076873 -0.221089
-0.729936 -0.220911 0.086035
0.613674 -0.095528 -0.255219
0.121618 -0.338238 -0.261556
-0.010345 -0.184323 0.095208
-0.194385 -0.475913 -0.264309
0.220656 -0.436144 0.181369
-0.334142 -0.450256 0.273957
0.220283 0.766745 0.034857
0.142331 0.271026 0.124691
-0.103629 -0.882369 0.036173
0.663186 0.303714 -0.098542
0.325489 0.658506 -0.033107
0.554958 0.091112 -0.240365
0.171798 0.807984 0.162896
0.540217 0.143956 0.106405
0.118291 -0.567683 0.064513
0.653258 0.313710 -0.087582
-0.128347 0.826858 -0.171490
0.387442 0.252858 -0.224828
0.684839 -0.142470 0.285986
0.511029 0.398203 0.125480
-0.254716 -0.213470 -0.243929
-0.650750 -0.298708 -0.041281
0.445765 0.524171 0.108962
-0.236109 0.229368 -0.212290
-0.044710 -0.581721 0.067219
-0.810251 -0.125584 -0.125508
0.164323 0.827537 0.004229
-0.705873 0.221104 0.140445
-0.209166 -0.276596 0.123063
0.163055 0.388787 0.132744
0.525406 -0.332735 0.072228
0.325427 0.437616 -0.210035
-0.541225 -0.335149 -0.246197
0.132685 0.855636 0.117013
-0.161076 -0.807736 -0.248924
-0.088220 0.088335 0.168104
-0.656412 -0.286066 -0.179052
-0.094756 -0.878072 -0.248114
-0.430507 -0.521579 -0.260753
-0.274910 -0.687603 -0.238004
-0.385373 0.085464 -0.219301
0.157619 -0.129900 -0.247294
-0.618797 0.091096 0.334608
-0.668044 0.228582 0.140123
0.131085 0.760714 0.160403
0.144943 -0.356874 -0.263438
0.128263 0.103485 -0.229725
-0.621637 0.033274 0.330486
-0.144276 -0.825500 -0.249824
0.249365 -0.422170 -0.270551
-0.496273 0.250536 0.257091
0.329366 0.464283 -0.208194
-0.557643 -0.189920 -0.235306
0.705697 -0.138955 0.082142
-0.529342 -0.090475 0.319418
-0.658717 -0.290355 -0.039386
-0.256314 0.322255 0.137503
-0.754014 -0.195568 0.089757
-0.063974 0.805228 0.168080
-0.219288 0.742424 -0.175490
0.059583 -0.470997 -0.269752
0.064330 0.467702 -0.201894
0.109995 0.375061 0.338526
-0.385586 -0.577592 -0.086510
0.066899 0.758309 0.161695
0.276160 0.606410 -0.196689
0.481896 -0.124234 0.293882
0.783678 -0.012338 -0.253078
-0.403978 -0.054361 0.113606
-0.169889 -0.319016 0.139421
-0.462589 -0.344145 0.093963
-0.533117 -0.238461 0.308790
-0.299690 0.377025 -0.200147
0.833951 -0.032035 -0.255652
-0.435200 -0.336134 0.128621
-0.150957 -0.340462 -0.255493
-0.465737 -0.376376 0.091701
-0.229275 0.246710 0.131416
-0.624290 -0.292134 0.101421
-0.092268 0.835762 -0.171669
0.152092 0.111055 0.112885
-0.267525 -0.219067 0.212892
-0.584416 -0.181573 0.203360
-0.401130 0.370781 0.144324
0.286778 0.053411 -0.236971
0.186628 0.707496 -0.187325
0.533830 0.088384 0.102527
-0.450187 -0.501884 -0.236588
-0.425891 0.425961 -0.193722
-0.831360 0.134571 0.119976
0.616251 0.355753 -0.146014
0.525997 0.063133 0.100877
0.050180 -0.006202 -0.235884
-0.934060 0.005755 -0.127703
0.891323 0.059683 -0.052586
-0.038166 0.752666 0.163685
-0.138679 -0.687558 0.061702
0.365233 0.287519 -0.221812
0.505155 -0.081839 -0.251750
-0.194753 -0.208286 0.097684
0.638281 -0.117953 -0.257405
-0.011015 -0.936381 -0.290949
0.226134 0.008817 -0.238815
-0.406703 -0.561384 0.041603
0.128834 -0.835098 0.041367
-0.221709 -0.646178 0.066594
0.128586 0.517301 0.171014
0.454300 -0.434326 -0.276110
-0.052326 -0.904653 0.044011
0.622282 0.348760 -0.133570
-0.386738 -0.575542 -0.103711
0.484661 0.348658 0.122495
0.058441 -0.837658 0.046333
0.353027 0.629109 -0.028775
0.532761 0.232746 0.113004
-0.813751 0.153921 -0.204563
-0.323704 0.636772 -0.180792
-0.363285 -0.473801 -0.260299
0.667537 -0.176292 -0.262297
-0.297257 -0.185119 0.162418
0.208117 0.042850 0.106668
-0.659568 0.216769 0.139074
0.593556 -0.275304 0.074830
-0.599848 -0.218132 0.106221
-0.019862 -0.119641 0.100108
-0.064834 -0.514403 -0.270054
-0.794118 0.168212 0.137560
-0.234219 0.646233 -0.182151
0.071299 -0.045830 0.308935
0.227895 -0.266789 0.083797
0.221912 -0.558572 -0.279800
0.791306 -0.070607 0.085136
-0.543985 0.071631 0.261430
-0.107901 0.673486 -0.183062
0.301502 -0.404280 0.277725
-0.676720 -0.277888 0.097859
0.445992 -0.003636 -0.244737
-0.559585 0.374580 0.148217
0.138956 -0.750214 0.050825
0.313908 -0.514052 -0.278677
-0.123177 0.785683 -0.174589
0.155360 -0.782657 0.048102
0.337354 -0.085452 -0.248180
-0.347067 -0.475640 -0.260802
-0.355598 -0.141674 -0.236427
0.308208 -0.598245 0.057964
0.366317 -0.353235 0.279941
0.433435 -0.378532 0.262647
0.118183 0.036250 0.277040
-0.134288 -0.765953 0.055925
-0.410306 0.099077 0.124860
0.076988 -0.102009 -0.243433
-0.007022 -0.350315 0.083113
-0.073773 0.599222 0.192543
0.041071 -0.156564 0.096044
-0.254873 0.040718 -0.225521
0.092209 0.256447 -0.217827
-0.382900 0.246837 0.340497
-0.013420 -0.102312 0.101216
0.038376 -0.849243 0.045952
0.922919 0.021948 0.035478
0.136110 0.752336 0.159682
-0.579436 -0.016923 -0.222283
0.145615 -0.500287 0.068769
0.563370 0.172395 -0.234672
0.084621 0.370357 0.338765
-0.339625 0.219399 0.337522
-0.148695 -0.766948 -0.286424
0.447283 0.240412 0.115511
0.074494 0.700425 0.157330
0.019657 -0.410681 -0.264473
0.498547 -0.122857 0.293602
-0.213759 -0.668306 0.064810
0.131866 0.854603 0.156446
-0.173619 0.357047 -0.204473
-0.272775 -0.478238 -0.262687
0.173995 -0.222975 -0.254407
0.089347 0.914543 -0.152073
-0.621990 -0.066424 0.323275
-0.282826 0.291434 0.292007
-0.162731 -0.261398 0.093107
0.506261 0.311119 -0.223323
0.412339 0.558212 0.137791
0.236097 0.550892 -0.199793
0.573043 0.402830 -0.172557
-0.436795 0.406109 -0.194911
0.464045 -0.305914 0.281135
-0.691545 -0.256070 -0.028784
0.276011 -0.323666 -0.264027
0.322570 0.497932 -0.205603
0.111291 0.143698 -0.226426
0.699996 0.070895 0.097466
-0.427495 0.147972 0.249440
-0.006604 -0.538947 -0.273161
-0.373797 0.544316 -0.186343
0.105180 -0.476034 0.071449
-0.394310 0.116415 0.174385
-0.194278 -0.093089 0.106014
-0.701613 -0.054274 0.139571
0.094601 -0.203291 -0.251169
0.770475 0.184969 0.005681
0.209928 -0.157895 0.092091
0.673864 0.194523 -0.235593
0.140999 0.194690 0.119194
0.637862 -0.273248 0.073967
0.132573 0.529299 0.318695
0.613833 0.348443 0.058806
-0.577791 -0.193527 0.305675
0.512484 0.287971 -0.225141
-0.181405 0.459819 -0.196854
0.550962 -0.130979 0.291817
-0.664152 0.200016 0.137966
-0.505619 -0.186447 -0.236243
0.197204 0.797925 -0.104508
-0.864291 -0.077036 0.055658
-0.091234 0.647911 -0.185294
-0.301712 0.624016 0.160389
-0.589842 0.118599 -0.212233
0.767470 -0.019832 0.187155
0.394436 0.585236 -0.029167
-0.140599 -0.578366 0.069652
0.292217 0.101227 0.108974
0.749175 -0.197286 0.076926
0.315982 0.674092 -0.147365
0.728943 0.229039 0.004693
-0.484236 0.345980 0.144426
-0.109223 -0.355000 -0.257499
0.077723 -0.101019 -0.243378
0.205913 0.355808 0.129377
-0.040761 0.896051 -0.010000
-0.415567 -0.537929 -0.250076
0.529503 0.122909 -0.237481
-0.472118 -0.492996 0.061300
-0.547680 0.079309 0.183383
-0.065198 0.787287 0.166809
-0.547774 -0.218350 0.160573
-0.073156 0.528647 0.294529
0.154897 0.259335 -0.219049
-0.672444 -0.275971 -0.035919
-0.089695 0.051531 0.148808
-0.185319 0.262505 0.131556
-0.111356 -0.728303 0.058128
0.306038 0.349435 0.126630
-0.441122 0.162177 0.254409
-0.105114 0.386391 -0.203912
0.343116 0.593499 -0.199152
0.652026 0.042112 -0.246129
0.112925 0.879410 0.058298
0.658667 0.314605 -0.225107
-0.287375 -0.194188 0.133250
-0.110638 -0.770148 0.055082
0.183124 0.810170 -0.048923
-0.154718 0.518262 -0.193232
-0.630307 -0.322940 0.011893
-0.223368 0.116378 -0.220762
-0.564104 0.093499 0.250162
0.264823 0.188424 -0.226694
0.395125 -0.272681 -0.263055
0.202868 0.788108 -0.025363
-0.244249 0.665169 -0.180551
-0.570671 0.101132 0.236210
0.433818 0.123586 0.107359
-0.096553 -0.880269 -0.163024
-0.094802 0.484771 -0.197025
0.062808 0.720698 -0.183542
-0.491957 0.108759 -0.215181
-0.401389 -0.072400 0.113791
0.110444 -0.533844 -0.275464
0.182611 -0.065035 0.099439
-0.757008 -0.002755 0.288908
0.104350 -0.153775 0.094801
0.572826 0.344848 -0.222401
0.482832 0.184714 -0.231941
0.340415 0.294022 -0.220774
-0.659538 0.033125 -0.216830
-0.321362 0.531282 -0.188484
0.607209 -0.219909 -0.264077
0.089706 -0.268596 0.086821
0.183229 0.573978 -0.196915
0.239907 -0.163219 0.091021
0.123438 0.604157 0.259026
0.048644 0.141757 0.323034
0.075100 0.194409 -0.221928
-0.132808 -0.715377 -0.283053
0.264871 -0.698171 -0.043749
0.509118 -0.146889 -0.256550
0.049281 0.186441 0.326255
-0.082224 0.271169 0.210155
0.181321 0.644440 -0.191769
-0.502590 -0.056761 0.321248
0.708124 0.047191 0.101722
0.068243 -0.719305 0.054678
0.486606 -0.156833 0.291414
-0.367566 -0.603046 0.045311
-0.089402 0.087762 -0.225893
0.710734 0.040534 0.182450
0.249894 -0.463033 0.096277
-0.321966 0.215022 -0.211369
-0.083391 0.754149 0.164825
-0.268762 0.659471 0.162203
-0.650070 0.116244 0.135220
0.106879 0.363565 0.337765
0.653176 0.312541 -0.061516
0.094226 0.020467 0.313212
0.360168 0.403265 0.129291
-0.885281 0.100117 -0.206825
-0.127055 -0.854281 -0.031413
0.663084 -0.111131 -0.257477
-0.492102 -0.319410 0.096428
0.169974 0.506117 0.141081
0.278220 0.243729 -0.222995
-0.600798 0.081620 -0.214660
0.737002 0.048024 0.094965
-0.268617 -0.198070 -0.242496
0.116624 0.062040 0.186009
0.723458 0.031055 0.099273
-0.410235 -0.264053 0.304131
0.409797 0.571446 -0.080868
0.138607 0.578540 -0.195565
-0.018068 -0.104051 0.101196
0.790175 0.162236 0.044095
0.433179 0.062296 -0.239670
0.330637 -0.279735 -0.262093
-0.859502 -0.060843 -0.219068
0.001948 0.939629 -0.042983
-0.427786 -0.488313 0.082730
0.026311 0.569796 -0.193634
0.383035 -0.337338 -0.267461
0.265466 -0.355634 0.282070
-0.090320 -0.035438 0.218620
0.226849 -0.408842 -0.269071
-0.348739 -0.618941 -0.038958
0.063531 -0.714375 0.055143
0.186429 -0.526650 0.065928
-0.326311 0.337890 0.284466
-0.036409 -0.760130 -0.288495
-0.445624 -0.509105 -0.187100
-0.624551 -0.321011 -0.154708
-0.511067 -0.446887 -0.038805
-0.315316 -0.463741 -0.260666
-0.338624 -0.110283 0.108065
-0.844020 0.054313 0.131523
0.131835 -0.446151 -0.269603
-0.247375 -0.243232 0.271115
0.278705 0.142164 -0.230360
0.258894 0.025657 0.104263
-0.441021 -0.515575 -0.154091
-0.142826 -0.826892 -0.252847
0.118181 0.080293 0.228852
-0.103411 0.391876 0.139052
-0.857051 -0.073003 -0.187231
0.477141 0.494513 0.034288
0.413455 0.326416 0.122510
-0.659507 -0.261583 -0.238169
0.717411 0.035181 0.146672
-0.130812 -0.854180 0.049116
0.887096 0.026833 0.090003
0.296724 0.389792 -0.212842
-0.604805 -0.269465 -0.239989
-0.019136 -0.726485 -0.286453
-0.308615 0.469195 -0.193270
0.103154 0.291702 0.332646
-0.104699 -0.869429 -0.208756
-0.144052 0.678267 0.160717
0.405254 0.574338 -0.040964
0.166586 -0.452502 0.071750
0.661237 -0.161072 0.081556
-0.315556 0.325538 0.304221
-0.425156 -0.050432 0.180689
0.197425 -0.002800 -0.239000
-0.405815 0.109592 0.125519
-0.376073 -0.028259 -0.227748
0.150524 -0.574798 0.063262
-0.821777 0.151104 0.040755
0.004408 0.126119 0.322912
0.177870 0.174081 -0.225747
0.704859 0.067736 -0.245480
0.315834 0.674438 -0.151296
-0.463292 0.188324 0.199475
0.152448 -0.666823 -0.286051
0.454084 0.012372 0.098844
-0.046510 -0.007143 0.314426
-0.266002 -0.185399 0.100968
-0.532655 0.166558 -0.210066
-0.644014 -0.310436 0.053910
-0.159381 0.627687 0.157404
0.387964 -0.035834 -0.245743
-0.524846 -0.428124 -0.125054
-0.772950 -0.173732 0.053149
-0.181809 0.763022 -0.174891
-0.002459 0.717323 0.160311
0.269913 0.615302 -0.195902
-0.132143 0.194518 -0.217188
0.039379 -0.407224 0.077933
-0.389307 -0.552071 -0.265372
0.280352 -0.501134 0.216955
0.740806 -0.170085 -0.263521
0.110704 0.869701 -0.173847
-0.396834 0.260361 -0.206376
0.910179 0.035175 0.041227
-0.079685 -0.064947 0.115194
-0.290000 -0.613466 -0.272085
0.578524 -0.188053 -0.261116
-0.089876 -0.033221 0.234098
0.230728 0.349470 0.128352
0.671166 0.080794 0.217301
0.009247 -0.266965 -0.253830
0.588445 0.010769 -0.246947
-0.391592 -0.014856 -0.226423
-0.279137 -0.210919 0.299205
-0.171501 -0.804481 -0.087191
0.238069 -0.325084 0.284908
-0.438246 -0.521404 -0.094191
-0.044447 0.322269 -0.209941
0.600020 0.178832 -0.235043
-0.702763 -0.246941 0.028534
0.136307 -0.611352 -0.281666
-0.676841 -0.084871 0.229616
0.002378 0.889826 -0.169916
0.333596 -0.478408 -0.276546
0.000877 0.669374 -0.185844
0.620055 0.342563 0.043963
-0.904687 -0.021761 -0.202767
-0.159716 -0.506645 0.075281
0.390391 -0.375246 0.277797
-0.104282 -0.090369 -0.238451
-0.009241 -0.111241 -0.242133
0.335283 -0.353358 -0.267530
-0.557629 -0.403782 0.090857
-0.125602 -0.580936 0.069123
-0.086754 -0.497062 0.074309
-0.749008 -0.002007 0.330840
-0.064833 0.688870 -0.182931
0.540407 0.135749 -0.236801
-0.228270 -0.734952 -0.281292
-0.527144 -0.064053 0.321281
-0.099195 -0.666363 -0.280272
0.319613 0.460473 0.134359
-0.156232 -0.813373 -0.238512
0.032061 0.115680 0.321525
0.306896 -0.236563 0.289745
-0.118628 -0.856616 -0.168296
-0.107916 0.808321 0.169308
-0.371001 0.209314 0.337509
-0.311793 0.326991 0.191323
-0.552327 0.417198 -0.191470
0.660549 0.310995 -0.191609
-0.152438 -0.220669 0.095821
0.220890 0.142038 -0.229049
-0.283496 0.060345 -0.223446
0.678549 0.148666 0.103587
-0.068418 0.471165 0.349558
0.890999 0.065896 -0.174344
0.362155 0.611140 0.143298
0.494681 -0.237169 -0.262757
-0.523017 -0.348328 0.095040
0.508248 -0.402262 0.067586
-0.211582 0.202076 0.127780
-0.193956 0.250393 0.130876
-0.401871 0.006796 -0.224620
-0.235121 -0.370165 0.292449
0.218682 -0.534092 -0.277954
-0.533126 -0.152553 0.315010
0.276601 -0.689834 0.052054
-0.142788 -0.840840 0.035702
0.804437 0.091134 -0.246060
0.283439 0.626268 -0.195417
0.346005 0.083786 0.106483
0.201799 -0.417773 0.214935
0.412464 0.549625 -0.203913
0.066423 0.891788 -0.171236
0.636075 -0.136273 0.289490
-0.777692 -0.004009 -0.216821
-0.286068 0.390728 0.143140
0.237398 0.624518 -0.194492
0.124738 0.297675 0.255793
0.774836 -0.087836 -0.258342
-0.855504 0.128044 -0.053911
-0.283245 -0.014472 0.113738
-0.201336 0.477784 0.147509
-0.615400 -0.000661 -0.220284
-0.144784 0.119498 0.120276
0.141680 0.192445 -0.223591
0.459270 0.268129 0.117244
-0.000938 -0.651426 -0.281434
0.845392 -0.022012 0.087419
-0.609716 -0.337942 -0.129666
0.787086 0.164004 0.075328
-0.550881 -0.194468 -0.235790
-0.898657 0.081932 0.001541
0.190035 -0.370495 -0.265454
-0.341432 -0.034027 0.113650
-0.152203 -0.356681 0.148334
0.967681 -0.024316 0.010948
0.128518 0.523624 0.161367
-0.714842 0.120594 0.133373
-0.218353 -0.266843 0.122759
-0.339268 -0.536172 0.077243
0.263883 -0.040605 -0.243255
0.513968 0.459976 -0.059033
0.001549 -0.792882 -0.291733
0.023186 -0.661296 0.059907
0.279724 0.067456 0.106814
-0.413959 -0.363523 0.229740
-0.005851 -0.633381 -0.280015
0.818691 0.144897 -0.223275
-0.118051 0.309400 -0.209192
-0.587867 -0.092188 0.320631
0.121096 0.158092 0.261389
-0.735685 -0.214467 0.078784
0.076378 0.166975 0.324227
0.578135 -0.142683 -0.257822
-0.056204 -0.666735 0.061326
0.772568 0.188215 -0.107693
-0.823323 -0.122313 0.094111
-0.091508 0.007454 0.123852
0.447385 0.046630 -0.241129
0.388351 0.223572 -0.226970
0.568315 0.342978 -0.222434
0.394788 -0.016379 -0.244490
0.424396 0.028384 -0.241925
0.491161 -0.388940 -0.273666
-0.075236 0.511091 0.229847
0.257566 0.001480 -0.240064
-0.368360 0.228633 0.338847
-0.661890 -0.283472 -0.112402
0.263022 0.033985 0.104772
0.078692 0.919530 -0.021230
0.419178 -0.261900 -0.262824
0.051345 -0.259043 0.088389
-0.024735 0.110343 -0.225735
0.415271 0.462379 -0.210294
0.173918 -0.705906 0.053235
-0.017881 0.685921 -0.184217
-0.249252 0.220495 -0.212633
-0.256798 0.567330 0.155259
-0.631570 -0.297652 0.101188
-0.098214 -0.765712 0.055119
0.751776 0.097290 -0.244412
-0.279482 -0.474293 0.116319
-0.257165 0.473503 -0.194133
-0.797362 0.043542 -0.212929
0.768574 0.189870 -0.054205
0.273398 -0.616992 0.057401
0.735700 0.010317 0.260326
-0.085209 -0.394269 0.081716
0.291933 0.548119 -0.201269
-0.048961 0.336940 0.339395
-0.333782 -0.434962 -0.258160
-0.083242 0.271298 0.168967
0.320635 0.288473 0.121882
0.417880 0.353966 -0.218203
-0.718433 0.209196 0.139870
-0.073765 -0.744633 -0.286520
0.494486 0.483840 -0.125722
0.278881 -0.351237 -0.266089
-0.704578 0.151864 -0.207204
0.138188 -0.310150 -0.259901
0.111094 0.882627 0.031840
0.431745 0.392872 0.126904
0.437279 -0.382765 0.070618
0.773085 -0.023585 0.141553
-0.720897 -0.043181 0.121653
-0.166631 -0.734031 -0.283631
0.454157 0.514333 0.128527
0.437413 -0.102848 0.296446
-0.856300 -0.040197 0.124961
0.677966 0.248846 -0.231753
0.336156 -0.277332 0.286125
0.211278 0.163564 -0.227271
0.145374 0.852251 -0.175902
-0.863254 -0.063100 -0.219145
0.231468 0.555264 -0.199371
-0.095077 -0.306265 0.088314
-0.161388 -0.274135 -0.250452
-0.000052 0.888414 0.172644
-0.413404 -0.048231 0.114265
-0.735648 0.014126 -0.216468
-0.501766 0.028517 0.227454
-0.034058 0.080466 0.320485
0.063144 0.294260 -0.214425
-0.325696 -0.642932 -0.047935
0.689783 0.124641 -0.241016
0.708001 -0.120606 0.288982
0.545240 -0.131003 0.291946
-0.137850 -0.417332 0.081249
0.106822 0.558318 -0.196304
-0.301434 -0.535810 -0.266201
0.257661 -0.073374 0.097121
0.229681 0.053512 -0.235660
-0.351500 -0.430099 0.085203
0.168576 -0.651348 0.057307
-0.208784 -0.387562 0.290588
0.225518 -0.580186 -0.281447
-0.517218 0.045490 0.215137
0.014491 -0.777073 0.051723
0.524081 -0.320024 0.073179
-0.392236 -0.490353 0.081770
-0.774994 0.068941 0.131006
0.087680 0.903723 0.109064
0.156872 0.221276 0.120757
0.115910 -0.018607 0.245309
0.583207 -0.134577 -0.257351
0.149046 0.022049 0.106510
-0.548422 -0.223942 0.290836
-0.550400 0.082573 0.175488
0.310958 -0.032106 -0.243715
0.542919 -0.154576 0.290292
-0.503488 -0.190180 -0.236562
-0.075482 0.508881 0.222321
-0.103560 0.369263 0.137419
