0.079836 -0.715389 -0.196543
0.442947 0.278047 0.067906
0.653581 -0.270433 0.088788
-0.573091 -0.389934 0.162463
0.539845 -0.270272 0.094957
-0.016065 0.764700 0.095574
-0.116795 0.807997 -0.275639
-0.644812 -0.137802 -0.191219
0.086213 -0.475433 0.131689
-0.118092 -0.406705 -0.203983
0.510294 0.309997 0.062365
0.371370 0.326280 0.068952
0.260603 0.636620 -0.286040
-0.849902 -0.094672 -0.182621
-0.194295 -0.503806 0.354229
0.521500 0.114140 -0.269420
-0.179382 -0.429845 -0.199290
-0.539550 -0.079309 -0.200384
0.019573 -0.599999 -0.200070
0.585343 -0.061956 -0.262510
-0.349784 0.615372 -0.107839
-0.141518 -0.692810 0.156869
0.880484 -0.044208 0.063131
0.184862 -0.314811 0.116864
0.291997 0.477723 0.064922
-0.255204 -0.112600 -0.213868
0.356736 0.237688 -0.267751
-0.782641 0.167211 -0.135125
-0.655011 -0.131720 -0.191024
0.638345 -0.074785 0.211987
0.161530 -0.624656 0.186873
0.053197 -0.425148 -0.212201
-0.333346 0.596688 -0.251423
-0.779540 0.024118 -0.193443
0.172612 0.331473 0.283335
0.383801 0.170886 0.077434
-0.581355 -0.326110 -0.183569
0.445001 -0.528657 -0.096497
0.345143 -0.169898 -0.243101
0.108044 -0.876802 0.150738
-0.235280 0.498252 0.297401
0.147602 -0.055484 -0.239114
0.033508 -0.424561 -0.211166
0.928732 -0.028339 -0.256125
0.640182 -0.274072 -0.252989
-0.737240 0.099929 0.142510
0.455676 -0.517520 -0.064411
-0.574787 -0.178458 -0.192627
0.591388 0.122985 -0.273738
-0.002930 0.101134 0.108730
0.186178 0.332492 -0.264074
0.106040 0.386191 0.197081
-0.229500 0.739488 -0.255837
0.684118 -0.222180 -0.258433
-0.066083 -0.610257 -0.194812
-0.241292 0.209590 -0.233611
0.172744 -0.049424 -0.240837
0.019347 -0.103197 0.119151
-0.328541 -0.050632 -0.213536
-0.244470 0.350921 -0.241767
0.384013 -0.591627 -0.035536
0.376712 0.037425 -0.257034
-0.164506 -0.705049 -0.183880
0.136900 0.628472 0.260411
-0.013429 0.442685 -0.259725
0.340468 0.116387 0.083000
-0.257781 0.219801 0.222208
0.064046 0.147334 0.096191
0.041670 0.781043 0.060060
0.180241 0.109017 0.092138
0.032207 -0.019230 0.313368
-0.067880 -0.917062 -0.175997
-0.136139 0.640601 0.169421
-0.008277 -0.752044 -0.189596
-0.052539 -0.819693 -0.183205
-0.021587 0.758935 0.077491
-0.293160 -0.413414 0.354272
-0.109749 0.373126 0.253809
0.175188 -0.807482 0.081691
-0.957932 -0.014035 -0.056610
-0.025449 -0.622274 -0.196311
0.190015 -0.319311 -0.225870
0.404427 0.086011 -0.261403
-0.388764 0.511373 -0.243385
0.195268 -0.090037 0.289247
0.123594 0.113575 0.300578
-0.540309 -0.268011 0.153497
-0.321974 -0.236874 0.345433
-0.589440 0.367209 -0.135397
-0.365418 -0.186450 0.294269
0.117010 -0.308730 0.120191
0.026870 -0.763737 0.304076
0.184221 0.451953 0.277343
0.545113 0.405205 0.054863
-0.176087 -0.646424 0.156013
-0.197884 0.123775 -0.230912
-0.016906 -0.204045 -0.221423
-0.300406 -0.581610 -0.183772
0.090697 -0.873625 -0.187808
0.888089 0.031655 0.058247
0.550946 -0.419135 -0.151997
0.122299 -0.101694 0.111664
0.724975 -0.006935 0.069381
-0.291208 0.184928 0.122471
-0.406660 0.556445 -0.125876
-0.551970 -0.400454 -0.180783
-0.448066 0.513805 -0.043196
-0.284115 -0.008810 0.124305
0.207828 -0.151618 -0.236720
-0.478349 -0.039646 -0.206046
0.016541 0.503673 0.184452
0.076695 0.433788 0.078623
-0.598031 -0.179236 0.151401
-0.143889 0.650459 0.077836
-0.244725 -0.328151 -0.201734
0.284006 0.383362 0.275965
-0.074328 -0.372868 0.134365
-0.670024 0.243126 0.130420
0.679041 -0.286530 -0.150483
0.529732 -0.425475 0.104653
0.524229 0.022960 -0.264195
0.451233 -0.521807 0.051311
0.468655 0.081220 0.283741
0.385791 -0.355831 -0.234352
-0.181033 0.665475 0.078968
0.149648 -0.107817 -0.236141
-0.212129 -0.218034 -0.209994
-0.705046 -0.243022 -0.181746
0.156842 0.112370 0.093211
-0.269474 0.590067 -0.254503
0.283876 -0.695045 0.053751
-0.319462 0.647035 -0.006021
-0.111906 0.835854 -0.277547
0.067239 -0.919226 0.083062
-0.053929 -0.584732 0.351374
-0.223903 -0.450061 -0.195680
-0.483255 0.477780 0.105057
-0.808658 -0.086915 0.157401
-0.040975 0.935273 -0.023151
0.780403 -0.181759 -0.208839
-0.583286 -0.064755 -0.198866
0.371237 -0.257623 0.103370
0.177075 -0.787257 -0.197589
-0.333606 0.433414 0.306563
0.641662 -0.060552 0.276053
-0.354027 0.131198 0.119852
0.611441 -0.356202 -0.037107
-0.191527 0.094660 0.113178
-0.516424 0.322840 -0.225340
-0.784192 0.165791 -0.066410
0.423868 -0.416089 0.109850
-0.654995 0.179214 0.133370
0.038151 0.100749 -0.242376
0.216812 -0.725945 -0.203361
-0.893541 0.052319 -0.168633
0.546227 -0.162851 0.088279
0.466507 -0.311876 0.101392
-0.226016 0.112076 -0.228694
-0.048518 -0.533672 0.348071
-0.224553 0.435839 0.300497
0.918287 -0.038538 -0.029257
0.085278 -0.901128 -0.130101
0.065486 0.369049 -0.259672
-0.308901 0.167752 -0.227473
0.395454 0.156413 -0.265065
-0.831953 0.069454 -0.193268
-0.347363 0.422263 0.287145
0.127008 -0.242870 0.115767
-0.645353 0.309235 -0.170039
0.058171 0.546497 0.084489
-0.117796 -0.648045 -0.189776
-0.852474 0.094805 -0.178068
-0.081626 -0.552699 0.350990
0.322025 0.149442 0.082054
-0.842757 0.029529 0.152391
-0.729739 0.221911 -0.158379
-0.537106 0.421704 -0.017107
-0.251225 -0.136579 0.130048
-0.048835 0.768619 0.065709
0.630512 -0.007818 0.089113
-0.490759 -0.160997 -0.198220
0.268583 0.311624 -0.267320
-0.010739 -0.676925 0.354461
-0.117535 -0.703393 -0.186529
-0.304882 -0.664528 -0.178643
-0.273577 0.693967 -0.215966
-0.057333 -0.303952 -0.213339
-0.223207 -0.374215 0.348162
0.176471 -0.450273 0.125303
-0.576748 -0.094016 0.145222
0.634801 -0.331940 -0.007433
0.207852 -0.545904 -0.213485
0.289688 -0.306548 0.110683
0.327766 0.060844 0.292595
-0.198646 -0.717868 -0.181270
-0.214771 -0.665230 -0.183496
0.031088 -0.503502 -0.206382
-0.071342 -0.688861 -0.189894
-0.192223 -0.253731 0.133748
-0.503486 0.409293 -0.231138
-0.126310 -0.154730 -0.218386
-0.574389 0.008240 -0.203651
-0.870092 0.013084 -0.187874
-0.692863 0.094934 0.140394
-0.416888 0.546429 0.085698
0.104698 0.594718 0.105733
0.127099 -0.183574 0.112268
-0.408602 0.257753 -0.227361
0.365074 0.122932 -0.261441
0.022595 -0.534115 -0.204116
-0.241486 -0.531123 -0.189948
0.483062 -0.071247 0.291943
0.370434 0.312050 0.069841
0.024133 0.271342 -0.251668
0.824103 0.040374 0.061209
0.190642 -0.686433 -0.204268
-0.137333 0.344654 0.283935
-0.563188 0.078515 0.134318
-0.233331 0.104330 0.114879
-0.055851 0.723914 0.243173
0.077796 0.567122 0.198740
-0.202434 0.226673 -0.236728
-0.045206 0.564161 0.283192
-0.832300 0.115984 -0.069200
0.620847 -0.346963 -0.221540
0.083644 0.682131 -0.279109
-0.113698 0.663931 0.206134
0.278298 0.515336 0.062866
-0.410771 -0.571149 -0.178394
-0.752123 -0.194508 -0.182048
-0.035804 0.940235 -0.168157
-0.692697 -0.046297 0.148708
-0.020188 -0.157576 0.118736
-0.181688 0.776205 -0.270241
0.923860 0.056650 0.054737
0.091064 0.604256 0.273427
0.055917 -0.931648 -0.177109
0.233344 0.531482 0.206681
-0.174757 0.600725 0.206561
0.278023 -0.536386 -0.217857
0.146401 -0.640367 0.168364
0.151512 -0.439080 0.125999
-0.510565 0.172394 0.125927
-0.216822 0.753363 0.022488
-0.599210 -0.038018 -0.199577
0.537111 -0.307371 -0.245427
0.252357 -0.163582 -0.238434
-0.617356 0.097456 -0.206575
-0.246371 0.346311 0.306958
0.455866 -0.063282 0.292951
-0.277647 -0.000592 0.123469
-0.782127 0.093116 0.145350
0.416969 -0.259790 -0.241705
0.348832 -0.239558 0.103522
0.699568 -0.248699 -0.257710
0.505932 -0.165889 0.090647
-0.308653 -0.084165 0.130079
0.484796 0.411848 0.057748
-0.818530 -0.188961 -0.178768
0.636088 0.044076 0.204711
-0.192632 0.249701 -0.238618
0.540851 0.226368 0.065634
0.169906 0.118000 -0.250549
0.637798 0.072428 0.243693
0.740564 -0.222929 -0.182642
-0.333477 -0.311326 0.350446
0.184598 0.045822 -0.247094
-0.001433 -0.944068 0.157886
-0.480023 -0.096786 -0.202588
0.098762 0.382323 0.099246
-0.583159 0.330244 0.120568
-0.092301 -0.314842 -0.210798
0.619844 -0.333120 -0.248404
-0.749708 0.201992 0.120088
-0.360328 -0.116078 0.134767
0.223397 0.219901 -0.259460
0.515951 0.112593 0.073691
0.728767 -0.190823 -0.262706
0.118890 0.382414 0.274628
0.113074 -0.100963 0.127282
0.369677 -0.097525 0.103295
0.689019 0.241043 -0.285998
0.153236 0.484647 0.071468
-0.475597 -0.285163 -0.191726
-0.661476 0.085384 0.139252
-0.610959 0.345570 0.100687
-0.026642 0.070212 -0.237057
0.041731 -0.084605 0.316704
0.283534 -0.104089 -0.243633
0.429879 -0.335784 0.104791
-0.822433 -0.033604 -0.187712
0.044413 0.418145 -0.261421
0.429738 0.208905 0.072698
0.036635 -0.545313 -0.204219
0.081607 -0.893089 -0.186167
0.093510 0.500526 0.073776
0.162918 -0.261849 -0.227784
0.229175 0.526808 0.073834
0.143190 0.668749 -0.281555
0.332278 -0.199211 -0.240675
-0.087852 0.690865 0.272456
-0.265648 -0.039924 0.125136
0.256651 -0.248042 -0.233689
0.310709 0.276128 -0.267517
0.532826 -0.317425 -0.244602
-0.307872 -0.409649 0.354850
0.500213 -0.397536 0.104610
-0.221039 0.668744 -0.261770
0.174868 -0.808289 -0.094221
0.559691 0.187307 -0.275807
-0.281290 -0.630522 0.160791
0.134712 -0.748372 0.145139
0.453626 -0.372747 -0.237040
0.643490 -0.322872 0.019608
0.109984 0.363052 0.080983
-0.338335 0.627244 -0.099844
-0.454921 -0.089255 -0.204395
-0.350553 -0.557826 -0.182450
-0.845230 0.102840 0.020341
0.372082 0.546469 0.055937
-0.112322 0.551013 -0.260737
0.756717 -0.205857 -0.052931
0.179197 -0.354644 -0.223200
0.534606 -0.006235 -0.263038
0.002047 0.488841 0.248303
0.118489 -0.866282 0.042634
0.065357 0.141819 0.096445
0.044872 0.190804 -0.248048
0.409222 0.383862 0.063502
-0.303741 -0.327290 -0.198579
-0.163494 -0.781596 -0.179424
-0.141411 -0.523808 0.352535
0.313392 -0.213294 -0.238819
0.144941 0.570381 0.066866
-0.263471 0.589175 -0.254776
0.707280 -0.149209 -0.263992
0.108509 -0.876707 0.007728
0.603210 -0.294819 0.092961
0.183932 -0.646321 -0.206268
0.633463 0.286748 -0.285674
-0.127174 -0.066143 -0.223560
-0.195573 -0.488745 -0.194940
0.067196 0.621387 -0.274636
0.135216 0.322923 -0.260742
0.469902 -0.291403 0.100001
0.105593 0.682339 0.062405
-0.374920 0.503064 -0.243648
-0.500849 0.459064 -0.080705
0.238497 -0.438405 -0.221485
0.280023 0.273555 -0.265698
-0.389270 -0.423263 0.154442
0.138538 0.002875 0.306290
-0.027375 0.866111 -0.283921
-0.517271 0.442188 -0.034820
0.210799 0.368084 -0.267509
-0.184420 -0.368797 -0.202614
0.028892 0.293045 -0.253205
-0.713276 0.056149 -0.198930
-0.139439 0.605159 -0.262455
0.326944 -0.650444 0.060347
-0.663926 -0.262971 -0.182804
0.894425 -0.063171 -0.003613
-0.286840 0.680072 -0.258864
0.219407 0.604944 0.060784
-0.149547 -0.001131 -0.226176
-0.444702 0.118406 -0.217188
-0.150201 -0.798416 0.163565
-0.052262 0.286937 -0.248437
-0.306509 -0.509747 0.155043
-0.482453 0.477754 -0.211710
0.318404 0.613296 0.054914
-0.112758 0.725061 -0.270971
0.292126 -0.505936 -0.220418
0.076337 -0.194484 -0.227051
0.639455 0.046547 0.266372
0.213135 0.270339 -0.261875
-0.169464 0.235684 -0.239050
0.862427 0.011869 -0.281912
0.518377 -0.409711 0.104340
-0.418781 -0.190622 -0.200384
-0.461970 0.394552 -0.232524
0.410678 0.483963 -0.285195
-0.073448 0.149950 -0.239213
-0.330509 0.144460 0.202174
0.468238 -0.124874 -0.252441
-0.294115 -0.173944 -0.208139
0.165593 0.449219 -0.269835
0.130111 0.141837 0.092927
-0.379232 -0.170674 -0.203708
0.129557 0.399458 0.283406
-0.350071 -0.212514 0.345524
-0.566285 0.000631 0.139076
0.471551 0.404409 -0.283813
0.099548 0.536581 0.071323
0.222265 -0.460131 0.123396
-0.071673 -0.027209 -0.228869
0.592242 -0.243936 0.090559
-0.625459 0.001308 -0.200469
0.563041 -0.406726 -0.193248
-0.362486 0.602623 0.040569
-0.011220 -0.108455 0.115354
-0.454935 0.196901 -0.221258
-0.455907 0.217584 0.120295
0.648533 0.288433 0.056127
-0.332310 0.447913 -0.242712
-0.399096 -0.274361 -0.196519
0.409956 -0.512856 0.116308
-0.012026 0.568699 0.281123
0.288248 0.426916 -0.275183
-0.916398 -0.063372 -0.180853
-0.553925 0.229175 -0.217783
0.442869 -0.222047 0.097382
-0.437068 -0.163987 0.141758
-0.052515 0.007585 0.117812
-0.499854 -0.052205 -0.204138
-0.368433 -0.144908 0.136906
0.162174 0.458742 0.072509
0.377650 -0.598474 -0.131851
0.204786 -0.366978 0.118856
-0.192813 0.287213 0.280522
-0.211020 0.759235 -0.027311
-0.285547 0.258482 -0.234088
0.352139 -0.562490 -0.220345
0.160331 -0.090740 0.288450
-0.450004 0.038089 0.130552
-0.076707 0.898289 -0.021437
-0.157714 0.813820 -0.247661
0.413380 -0.080724 0.296287
-0.577240 -0.007522 0.140152
0.184361 -0.196101 -0.232824
0.574824 -0.304708 0.095086
-0.691944 -0.041548 -0.194332
-0.210136 0.760301 0.028383
0.355928 -0.620387 0.080270
0.477365 -0.495034 -0.051400
0.233119 -0.115473 0.102495
0.344266 -0.474229 -0.225119
0.231462 0.630393 -0.284090
0.522317 0.093975 0.280074
0.582736 -0.377529 0.098948
-0.112170 -0.678949 -0.188261
0.125138 0.154400 -0.250263
0.449389 -0.269180 -0.242913
-0.301444 0.174587 0.216464
0.254997 -0.498761 -0.218824
0.009529 0.496470 0.205204
-0.330239 0.563315 0.093094
-0.221474 0.130956 0.112666
0.019189 0.171298 0.097216
-0.447118 -0.270979 0.311028
-0.285581 0.563055 0.090683
-0.395196 0.568218 -0.160851
-0.378821 0.452943 0.102237
0.482901 0.202490 0.070189
-0.661699 0.292636 -0.050969
-0.048017 -0.059959 0.180151
0.126973 0.008975 0.306558
-0.350046 0.249943 -0.230082
0.065370 0.119610 0.097753
0.368242 -0.126631 0.095813
-0.408212 0.359196 0.258122
0.074422 -0.714808 0.194619
-0.163398 0.690661 0.076526
0.681120 -0.284494 -0.193748
0.119908 0.434849 0.076213
-0.140633 -0.659047 0.154832
-0.257452 -0.337751 0.347874
-0.119812 -0.487322 0.349212
0.401351 0.236370 0.072622
-0.140137 -0.683895 -0.186450
0.249046 0.686425 0.054372
-0.138258 0.834243 -0.143434
-0.210665 0.246728 0.105256
0.467385 0.310226 0.064682
0.164650 -0.449426 0.125895
0.142958 0.396382 0.282859
0.329241 0.346182 0.275699
-0.416948 0.481187 -0.240075
0.480612 -0.491754 -0.081965
-0.169714 -0.322925 0.342234
-0.032133 0.385405 -0.255334
-0.758732 -0.174797 -0.182851
-0.648340 0.269567 0.127684
0.623650 0.286749 -0.285141
0.679669 -0.286071 -0.221665
-0.149056 -0.441744 -0.200236
0.160100 0.186495 0.088666
0.219197 -0.194557 0.107912
0.077481 0.451604 0.077530
0.074782 -0.714240 0.266566
-0.469254 -0.200722 0.145672
-0.583095 -0.115747 -0.195871
0.577378 -0.149398 -0.256924
-0.604535 0.008940 -0.202055
0.743379 -0.078970 0.072627
-0.177380 0.793460 -0.248816
-0.287409 0.679564 -0.247282
0.524338 -0.261544 0.095285
-0.465926 -0.082033 -0.204223
-0.892459 0.053754 -0.051929
0.853070 -0.106459 -0.180763
0.002250 0.488965 0.216275
-0.378695 0.389648 0.219770
0.373138 -0.589430 0.122821
0.224909 -0.756715 -0.178223
0.319155 -0.089729 0.254326
0.440638 -0.532609 0.112900
-0.692304 0.023999 0.144544
0.169456 0.465150 0.133843
0.323374 0.548004 -0.284227
0.710832 -0.176245 0.080128
-0.431647 -0.146502 -0.202285
0.359934 -0.398547 -0.230430
0.143335 -0.379179 0.122913
-0.595640 -0.284893 -0.185222
-0.048044 -0.030893 0.187869
0.853131 0.019552 0.060859
-0.458204 0.288230 0.321888
-0.537619 0.132446 -0.212968
-0.458729 0.503114 0.085169
0.211044 0.329021 -0.265220
-0.433388 -0.147509 0.140587
-0.464944 0.001428 0.133524
0.823280 -0.136839 -0.011023
-0.404964 0.085834 -0.217427
-0.088417 0.452226 -0.256214
-0.744721 -0.052585 -0.190814
0.090921 -0.797776 -0.192290
-0.341124 -0.343133 -0.195615
-0.310648 0.216068 -0.230225
-0.087776 -0.846393 0.163001
0.042060 -0.766383 0.151233
0.578473 -0.390701 -0.174870
-0.101394 -0.587894 -0.194212
0.938846 -0.015587 0.058274
-0.215089 0.755023 -0.027086
0.383804 -0.591990 -0.089721
-0.363139 -0.184135 0.277536
0.026422 -0.108170 0.113293
0.276239 -0.316626 0.112007
0.266058 0.067221 0.295571
-0.807894 0.141578 0.053207
-0.420523 0.428949 0.105916
-0.244224 0.234052 0.302660
-0.221123 0.322963 -0.241388
-0.551894 -0.351952 0.159073
-0.273440 0.694781 0.032504
-0.286215 -0.658206 0.162690
-0.195426 0.584364 -0.258189
0.454190 0.411198 -0.283270
0.541125 -0.186995 0.089980
0.376912 -0.063947 0.297279
-0.033844 0.592819 -0.267464
-0.530919 0.161082 0.127699
-0.099754 0.472960 -0.256820
-0.262363 0.705641 0.081019
0.053276 -0.284417 -0.220499
0.080083 -0.906408 -0.093958
-0.635563 -0.035185 0.144950
0.142742 -0.355855 0.121571
0.095375 -0.890773 -0.165900
-0.026347 0.123859 -0.240234
0.802293 -0.159105 -0.211095
0.482599 0.097933 -0.266352
0.031095 0.518528 0.106517
0.024261 -0.047420 0.315461
0.636740 -0.035303 0.194084
-0.272665 -0.296559 -0.202078
-0.423521 0.538699 -0.234251
-0.781055 0.067688 0.146790
-0.917013 0.028681 0.075520
0.453688 0.007131 -0.259430
0.357569 -0.619427 -0.193139
-0.049028 -0.028324 0.170778
-0.356277 0.608863 -0.028828
-0.694376 -0.245998 -0.182151
0.502840 -0.092939 0.139227
0.162251 -0.620550 0.341742
0.110044 -0.808722 -0.192683
0.664368 -0.301765 -0.167568
0.248895 -0.212437 0.107353
-0.032124 0.661379 0.276752
0.354778 0.279057 -0.270083
-0.010452 -0.357151 0.129969
0.152222 0.544208 -0.274706
0.140769 -0.090164 0.304759
0.344930 0.248394 0.074978
-0.124871 0.294027 0.097808
-0.442172 0.347903 -0.230850
0.535646 -0.434501 0.022943
-0.132032 0.281707 0.098923
-0.071891 0.636580 0.280374
-0.203902 -0.428395 -0.198044
0.164905 0.640789 0.061632
-0.042859 0.161988 -0.241584
-0.079676 0.046812 0.109922
0.379183 -0.597061 -0.196200
-0.363650 0.586337 0.093552
-0.252271 -0.237702 0.341696
-0.213999 -0.052571 0.123075
-0.036951 0.906665 -0.285791
-0.481184 0.083472 0.129571
-0.671841 -0.160148 0.154285
-0.764626 0.049288 -0.195737
-0.340746 0.429141 0.297250
-0.091623 0.882659 -0.091752
0.061400 -0.147972 0.113738
-0.400288 0.367212 0.189278
0.812571 -0.148574 -0.251166
0.090983 -0.092188 0.285986
-0.638857 0.316526 0.039308
-0.293558 0.272914 0.313847
0.523652 -0.208027 -0.250551
0.062083 0.550742 0.156665
-0.257547 0.125489 -0.227772
-0.361805 0.142711 0.119596
0.386766 0.023515 -0.256761
-0.918991 0.026295 -0.049733
-0.624979 -0.030972 -0.198592
-0.183620 0.124805 0.110972
0.105050 -0.880149 0.059088
-0.235298 0.662391 0.082098
-0.309387 -0.228475 0.344255
0.804173 0.130670 -0.285749
0.115808 -0.757932 0.146729
-0.154025 -0.269288 -0.210130
0.219084 -0.451985 -0.219630
-0.242961 0.354008 0.306319
0.363610 -0.435318 -0.228463
0.260845 -0.568873 0.127709
0.083532 -0.081920 -0.234076
0.578996 -0.360299 0.098136
0.430340 0.474227 -0.285689
-0.737922 0.213421 -0.165855
0.048545 0.180179 -0.247621
-0.420490 0.105262 0.124990
0.079630 -0.709381 0.207779
0.634780 -0.056584 0.152583
-0.132579 -0.444784 0.347398
-0.568643 0.388694 -0.151639
-0.404633 0.362655 0.167314
0.435991 -0.092719 0.164744
-0.494368 0.025365 0.133712
-0.453734 0.507907 -0.054876
-0.238664 0.602121 0.085832
-0.324706 0.445711 0.284438
0.174472 0.090001 0.299203
-0.551894 -0.249147 0.153014
-0.086329 0.020183 -0.230866
0.163762 -0.819818 -0.106403
-0.033040 -0.387134 -0.209756
-0.151167 -0.340074 -0.206113
0.856373 -0.103166 -0.227205
0.606197 0.234504 0.061605
-0.061352 0.824051 0.063122
0.709689 -0.179018 -0.262366
-0.040079 0.839764 -0.281679
-0.848568 -0.147662 -0.179570
0.336060 -0.231855 0.103762
0.174786 0.115723 -0.250680
0.699819 -0.043609 0.072909
-0.088748 0.885519 -0.134589
-0.052681 -0.494903 0.346012
0.032349 -0.101600 0.142497
0.086075 -0.013083 -0.238271
-0.375834 0.009534 -0.214513
-0.465646 -0.290389 0.225778
-0.111893 0.861697 -0.083478
0.067545 0.074018 -0.242397
0.151981 -0.587187 -0.208017
0.559735 -0.409940 -0.116237
0.043605 0.437507 -0.262518
-0.627053 -0.113086 0.149079
-0.317795 -0.559554 -0.184128
-0.269494 0.439138 0.302744
-0.169251 0.576871 -0.259169
0.332003 -0.645335 0.013370
0.019109 0.466139 -0.262875
0.211387 -0.047319 -0.243060
0.211391 -0.048984 0.305389
0.168940 -0.814637 -0.172252
0.345272 -0.291221 -0.235959
0.156348 -0.674650 -0.203100
-0.023425 -0.464052 -0.205746
0.463366 -0.509414 -0.010310
0.382004 0.471377 0.059823
-0.370668 0.559864 -0.247226
-0.075704 0.408319 0.235328
0.129209 -0.318395 0.120098
-0.145302 0.336119 0.178521
-0.940284 0.004469 0.030107
0.149849 -0.098463 -0.236703
0.223619 -0.159508 0.105606
0.667179 0.146494 0.063479
0.342588 -0.086560 0.300476
0.208441 0.639215 -0.283359
0.672098 0.142571 -0.279276
-0.251141 -0.645866 0.160058
0.475900 -0.496851 -0.162591
-0.073256 -0.859748 -0.179720
0.279150 -0.019652 0.299979
0.502826 0.203126 0.069069
-0.060238 0.210070 -0.243474
-0.739541 -0.017672 -0.193153
0.068426 -0.917844 0.139556
-0.045295 0.596166 -0.267039
0.227886 -0.124813 -0.239389
-0.548569 0.409400 -0.179169
-0.080565 0.893693 -0.244347
0.047325 -0.161228 -0.227435
0.161971 -0.235200 0.113416
0.183226 0.023588 0.302642
0.225195 -0.121801 -0.239420
0.092598 -0.081597 -0.234587
0.689878 -0.275549 -0.238320
-0.374837 0.316760 -0.232673
-0.640479 0.314844 0.038531
0.117046 0.204216 -0.252759
0.146138 -0.202311 0.112338
0.881732 -0.076460 -0.058808
-0.819364 0.094698 -0.195440
0.827045 0.024764 0.061969
-0.323915 -0.003367 0.126146
0.446477 -0.131599 -0.250863
-0.521180 -0.252828 0.151563
0.712609 0.222493 0.056532
0.604617 -0.286967 0.092422
0.117618 0.685981 0.061537
-0.523120 0.367493 0.115111
-0.370393 0.577238 -0.248265
-0.043010 0.748130 -0.276119
0.664774 -0.301431 -0.199525
0.049514 -0.096389 0.226913
-0.123538 0.653665 0.176635
0.716967 -0.193968 0.080839
-0.136877 -0.691316 0.156529
0.305804 -0.334193 -0.231282
0.188529 0.270350 0.082180
0.342666 0.474935 -0.280969
0.238260 -0.742721 -0.114274
0.070138 0.136791 -0.246237
-0.790982 -0.054047 -0.188215
-0.114549 0.781918 -0.274224
-0.489654 -0.213760 -0.195171
0.110268 -0.677339 0.328478
0.681966 0.126327 -0.278855
0.055529 0.742459 0.061582
-0.303067 0.467878 0.198067
-0.515592 -0.335990 0.156160
0.633735 0.032326 0.158802
0.036056 -0.289976 0.123484
0.498770 -0.325544 0.100445
0.497245 -0.140635 0.089631
-0.618534 -0.119632 -0.193717
0.546761 0.210945 0.066222
0.234731 0.697309 0.054508
0.041827 0.868488 0.054899
-0.084594 -0.168763 -0.219825
-0.140929 -0.714375 0.158108
-0.442469 -0.379372 -0.187974
0.316710 -0.115728 0.097970
0.692625 0.023377 -0.273367
0.542555 -0.332445 -0.244245
-0.032876 -0.148189 0.118872
-0.442542 0.519805 0.060957
0.089558 -0.896479 -0.049051
-0.298691 0.668704 0.055938
0.611800 -0.184704 0.086006
-0.412091 0.316264 0.317731
0.436182 -0.259597 0.099959
0.215937 0.239263 0.082523
0.605216 -0.360372 -0.246003
0.426613 -0.419392 0.109896
0.039467 -0.948202 -0.001119
0.236159 -0.585657 0.130039
0.460649 -0.427235 0.108509
0.883747 -0.074616 -0.148224
-0.433650 0.332925 0.281302
0.142117 0.312061 0.082243
0.095936 0.813259 0.055214
0.144724 -0.705686 0.142080
-0.504821 0.454799 -0.137679
0.038531 0.421718 -0.261312
-0.162806 0.613307 0.284243
-0.573114 -0.068801 -0.199180
0.331564 0.279714 -0.268861
-0.020291 -0.029476 -0.231527
-0.527218 0.061783 0.133350
-0.250990 0.171450 -0.230836
-0.368993 -0.453275 -0.187610
-0.001428 -0.350273 -0.213646
-0.114091 -0.070007 0.118676
-0.662604 -0.115474 -0.191569
-0.289591 -0.133821 -0.210749
0.228357 -0.531420 0.127267
0.633598 -0.091036 0.121452
-0.731743 -0.078500 -0.189992
-0.143377 -0.318446 -0.207811
-0.112767 0.665060 0.267214
0.093013 -0.893207 -0.162086
-0.232854 0.540664 0.236364
0.671104 -0.192529 -0.259474
0.481502 -0.475976 -0.232470
0.259065 0.638538 0.056650
0.424131 0.406671 0.061348
0.138577 0.433500 0.250457
-0.033638 0.232080 -0.246216
-0.569259 0.083578 -0.208370
-0.424967 0.108592 -0.217682
-0.043832 -0.057969 0.256468
-0.341803 0.623500 -0.157047
-0.132201 -0.321380 0.335095
-0.438630 0.073184 -0.214853
0.683906 0.069383 -0.275604
-0.632619 -0.058048 -0.196582
-0.588620 -0.413596 -0.173549
0.226430 0.057140 -0.250033
0.198457 -0.168391 0.107497
-0.372902 -0.185301 0.139529
0.769804 0.092488 0.061087
0.466960 0.319824 -0.278579
-0.347828 0.366855 -0.237092
0.235914 -0.354705 -0.226277
-0.259153 -0.725156 -0.177554
-0.351329 0.347852 -0.235782
0.047109 -0.525878 -0.205934
-0.012956 -0.944052 -0.178027
-0.286686 0.361572 0.308249
-0.271230 -0.143010 -0.211205
0.904581 -0.052571 0.028745
-0.269305 0.378039 0.306334
0.235483 0.312327 0.282787
0.949952 -0.006061 -0.140686
-0.073819 0.327515 -0.249658
-0.418224 0.544650 -0.060972
-0.219138 -0.377887 0.348158
0.288706 0.597896 -0.285284
0.199754 -0.329405 0.116915
0.623813 0.276816 0.058154
-0.039175 0.871606 -0.283604
0.630331 0.286104 -0.285466
-0.308773 0.657454 -0.245404
0.736592 0.130949 0.060625
-0.299607 -0.643982 0.162579
-0.842707 0.105374 -0.008670
0.464556 -0.093199 -0.254108
0.325250 0.109021 -0.258458
-0.499192 -0.181362 -0.196562
-0.203302 0.571301 0.252864
-0.469728 -0.295385 0.207572
-0.410991 0.552194 -0.040204
0.695489 -0.068850 -0.268087
0.760934 -0.161780 -0.266165
-0.039973 -0.667677 -0.192847
0.153085 0.562294 0.066900
-0.068974 0.368078 0.090408
-0.593500 0.297445 0.123062
0.043301 0.673198 0.271959
0.318351 -0.629793 -0.214543
-0.133284 0.643490 0.144707
-0.263241 -0.089800 0.127944
0.550245 -0.024825 -0.262792
-0.049845 0.925777 -0.139721
-0.271843 -0.289809 -0.202520
-0.268351 0.287295 -0.236720
-0.609452 -0.390636 -0.178240
0.868301 0.084084 0.056232
0.174798 0.173901 0.088610
-0.013858 -0.382480 -0.211073
-0.209023 0.720689 0.077235
0.173436 0.200417 -0.255598
-0.266174 0.086155 0.117734
0.574767 -0.240645 -0.251405
0.059541 0.548135 0.165867
0.233405 -0.351398 0.116383
0.089671 -0.160169 0.112921
-0.058801 -0.536129 -0.199576
-0.015691 0.470474 0.246260
-0.226035 0.061801 0.116989
0.809966 -0.150560 0.011674
-0.063197 -0.699357 0.153001
-0.022494 0.954412 -0.020280
0.014748 0.604012 -0.270763
-0.500089 -0.345435 -0.186844
-0.412238 0.550643 -0.136457
0.331290 0.591398 -0.284996
-0.074508 -0.338809 0.132367
0.289994 0.423364 -0.275068
-0.511529 -0.210774 0.148560
0.329842 0.336533 0.272398
0.097944 -0.795950 -0.192779
0.534891 0.203993 -0.275443
0.154849 -0.415609 0.124435
-0.047253 -0.015723 0.206482
-0.051350 0.008625 0.139183
-0.375205 -0.229642 0.347899
0.587531 -0.094130 0.091142
-0.203620 0.766891 -0.028844
-0.116303 0.129287 0.107051
-0.277571 0.678977 -0.259303
-0.335545 0.291449 0.315035
-0.126185 -0.722102 -0.184956
-0.042825 -0.775781 0.156398
0.940491 -0.015565 -0.033565
-0.096063 0.387396 0.291247
0.489071 -0.483233 -0.169164
0.478654 0.200894 0.070514
0.176621 0.191915 0.087449
-0.399752 0.563314 -0.230405
-0.810181 0.020708 0.151141
-0.685334 0.222970 -0.210279
-0.054475 -0.504963 0.346702
0.040590 -0.206395 -0.224407
-0.303471 0.306220 -0.235928
0.150183 -0.216550 0.112957
0.641287 -0.325111 0.034801
0.528500 0.257202 -0.278231
-0.137356 0.639446 0.208239
-0.507535 0.451930 -0.159399
0.825416 0.000048 0.063514
0.139692 -0.012253 0.307119
-0.525290 -0.223651 0.150067
0.604622 -0.363147 0.004872
0.639231 0.072195 0.269565
0.635714 0.180864 -0.279556
-0.240574 0.525793 -0.252285
-0.057844 0.435855 0.291440
0.360221 0.005816 0.294075
0.359914 0.367460 0.197569
0.563656 0.070035 -0.269111
-0.049975 0.064604 0.179903
-0.155159 0.182663 0.106016
-0.039779 0.782704 -0.278332
-0.214520 0.755788 0.038173
-0.087459 0.266399 0.097404
0.065064 0.163632 0.095175
-0.412254 0.150401 -0.220836
-0.213254 -0.570188 -0.189179
0.633282 -0.035567 0.281681
0.624168 0.162042 0.064899
0.158683 0.509658 0.069698
0.077272 0.642449 0.271926
0.375451 -0.002178 0.293718
-0.071641 0.338667 0.092286
0.569438 0.367010 0.055792
-0.304688 -0.116458 -0.210952
-0.827615 -0.119015 0.160322
-0.066958 0.417037 0.110845
0.288494 0.099709 0.292437
0.768628 -0.157261 0.075869
-0.071272 0.903635 -0.125486
-0.479007 -0.331237 -0.188826
0.518011 -0.225863 -0.249193
-0.591368 0.066775 0.136541
0.886897 -0.070886 0.025141
-0.024656 0.167011 0.099850
0.071236 0.462877 0.077205
0.167526 -0.816018 -0.141972
0.037215 -0.950095 0.161041
-0.478573 0.482518 0.064804
-0.528249 0.268601 -0.221501
0.198345 0.037278 0.301013
-0.165609 0.805763 -0.205056
-0.332432 0.486497 0.097740
-0.060400 0.537683 -0.262772
0.656167 -0.308629 -0.251820
-0.621661 0.298776 0.124514
-0.195303 0.774890 -0.254650
-0.533779 0.110389 0.130842
0.127385 0.628743 0.270011
-0.358479 -0.592718 0.162756
0.691721 0.257185 0.055622
0.317969 0.115594 -0.258450
-0.032412 -0.312698 -0.214177
0.310633 0.210199 -0.263627
0.838371 -0.107966 -0.273543
-0.233583 0.563062 -0.254861
-0.007911 0.262568 -0.249410
0.347054 -0.630173 -0.141470
-0.751194 0.200317 0.069341
0.546143 0.205093 -0.276119
0.181997 0.124648 -0.251598
-0.386850 -0.526676 -0.182314
0.326657 0.046225 0.293516
-0.780528 -0.152337 -0.182991
0.715307 0.014349 0.068652
0.595490 -0.012852 0.282395
0.459815 0.097389 0.283268
0.203454 0.007452 -0.245857
0.137955 -0.846197 0.018222
-0.371220 -0.192659 0.218842
0.365052 -0.358004 -0.233097
0.059947 0.243201 0.090764
-0.464505 -0.453075 0.160286
-0.459562 -0.284133 0.210110
-0.453960 0.115035 -0.216487
0.625079 -0.076889 0.284562
0.314910 -0.191078 0.102508
0.034796 -0.953487 -0.167475
-0.311064 0.051947 -0.220531
-0.084812 -0.721533 -0.187237
-0.030545 0.945800 -0.123496
-0.319795 -0.480168 0.154022
-0.030811 -0.781558 -0.186633
-0.323695 0.446456 0.173017
0.387968 0.232585 -0.269147
-0.774659 0.175868 0.010428
0.335348 -0.098211 0.102596
-0.358084 -0.003869 0.128032
0.077807 -0.046600 -0.235846
0.160907 -0.145263 -0.234546
-0.572755 0.155347 0.130310
0.374252 0.514461 -0.285014
-0.059781 0.471064 -0.258880
0.088662 -0.561968 0.342287
-0.044044 0.441164 0.261536
-0.441314 0.420780 0.107527
-0.047911 -0.004493 0.197738
0.604665 -0.363237 -0.045014
-0.015758 -0.476486 0.342921
0.049819 0.280094 0.089140
0.461853 0.239947 0.069125
-0.260248 0.511932 0.097436
-0.686301 0.267579 0.100839
-0.349908 -0.170357 0.307470
-0.244083 0.413208 -0.245459
-0.592284 0.364816 0.068585
-0.081751 -0.716373 0.155012
-0.468375 -0.384249 0.156440
0.483492 -0.489011 -0.170187
0.095815 -0.457010 -0.212638
0.413700 -0.532960 -0.225429
-0.621440 -0.077556 -0.196039
-0.698935 -0.101199 -0.190436
-0.050498 -0.600620 -0.196227
0.020367 -0.092761 0.299021
0.174595 0.078755 -0.248491
-0.284925 0.682175 -0.232350
-0.566215 0.063282 0.135380
-0.087069 0.467644 0.291154
0.058990 -0.302723 0.122989
0.463548 -0.345345 0.103525
0.663598 0.305864 0.054281
0.041787 -0.570429 -0.203019
-0.619116 -0.118668 -0.193743
-0.735815 0.195100 0.136824
-0.241698 0.338973 0.307137
0.213351 -0.736971 -0.202523
0.033134 -0.954519 0.087224
-0.677439 -0.236582 0.159093
-0.388010 -0.288168 -0.196307
0.128430 -0.658571 0.316123
-0.863439 -0.004121 0.155497
-0.131361 0.025170 -0.228714
0.377774 -0.212358 -0.242372
0.147414 -0.638849 0.342184
0.483143 -0.489383 -0.174017
-0.329871 0.635693 -0.215500
0.529139 -0.298442 -0.245521
0.690222 -0.140755 -0.263563
-0.683042 0.270183 -0.183489
-0.068207 0.050596 0.109076
0.548205 -0.053974 -0.260963
-0.091697 0.882507 -0.119607
-0.703713 0.036729 0.144414
0.402516 -0.050822 0.295115
0.139470 0.630986 0.206411
0.261743 -0.408140 0.118188
0.155306 0.382026 0.283034
-0.336391 -0.241165 0.346469
0.048885 -0.841592 -0.187424
-0.247604 0.358008 -0.242015
0.033488 0.101399 0.101465
-0.049443 0.318681 -0.250461
-0.151979 0.329388 0.245459
0.222831 -0.559697 -0.213486
0.114028 -0.555182 -0.207842
-0.422402 -0.066372 -0.207510
-0.573443 0.384400 0.098195
0.710176 0.229864 0.056230
-0.115814 0.419448 -0.252794
-0.110852 -0.536858 0.351644
0.035153 -0.952549 0.042675
0.579482 -0.389257 -0.026900
-0.802652 -0.202212 -0.178850
0.095149 -0.693384 0.182818
-0.152922 -0.477675 -0.197909
0.709246 0.228575 0.056357
0.596564 -0.372042 -0.199939
0.239493 -0.653187 0.133838
0.579750 -0.306894 -0.247772
0.012290 0.499087 0.115942
-0.004137 -0.171904 -0.224011
-0.719089 -0.174844 -0.185002
0.235706 0.108598 0.089150
-0.391174 0.572380 -0.161408
-0.060360 -0.290399 -0.213973
-0.766260 -0.167613 0.159854
0.214574 -0.564507 -0.212754
-0.051526 0.719156 0.274401
-0.277613 -0.042569 0.125941
0.176150 0.472036 0.117824
-0.916060 0.029880 0.154109
-0.096557 -0.561822 -0.196011
0.376924 0.384867 -0.277522
0.856739 -0.102645 -0.174643
-0.774408 0.175975 -0.046067
0.361431 0.431748 -0.279443
0.715714 -0.248260 -0.037307
0.150765 -0.025615 0.307304
-0.479077 0.454088 -0.235104
-0.362240 0.406887 0.295636
-0.007560 0.696129 -0.274980
0.887918 -0.070082 -0.068487
0.383007 0.391442 0.225932
-0.365216 0.599803 0.042520
0.564970 -0.071665 -0.260831
0.048786 0.060491 -0.240581
-0.776287 0.173799 -0.131327
0.205665 0.560370 0.064157
-0.792295 0.157955 0.137882
-0.802401 0.146905 -0.080041
0.183443 0.734296 -0.284704
-0.789933 0.159493 -0.197968
0.200823 -0.157122 0.106704
-0.672974 -0.179442 -0.187236
-0.238144 -0.311813 -0.203054
-0.331203 -0.043165 -0.213831
0.191707 -0.790935 -0.122649
-0.282973 -0.253727 -0.204042
0.667334 0.065052 -0.274449
0.405574 -0.444475 -0.230202
-0.644730 -0.316763 -0.180677
0.445147 -0.192647 -0.247193
0.819567 0.150446 0.054968
0.115525 0.606146 0.186882
0.368283 -0.526994 0.119405
0.030799 -0.760017 0.175644
0.147921 0.051444 -0.245433
0.101417 -0.879631 -0.188036
-0.128747 0.407004 -0.251358
0.442398 -0.531080 0.004372
0.693444 -0.198815 -0.260317
0.421597 -0.080160 0.295808
-0.299245 0.471694 0.146117
-0.120754 0.852652 -0.036226
-0.173261 0.252187 0.102902
-0.050825 -0.425863 0.341842
0.528925 0.138378 -0.271252
0.394453 -0.092084 0.189202
-0.819062 -0.130038 0.160507
0.935164 -0.021377 -0.143565
-0.187856 0.377752 -0.246424
-0.230328 -0.192054 0.132183
-0.540295 -0.118586 0.144690
0.187080 -0.127473 0.105703
-0.151431 -0.034135 0.118590
-0.367870 -0.585540 0.162843
-0.660167 -0.218596 -0.185624
0.419166 0.195531 -0.268658
0.109916 0.338166 -0.260266
0.637606 0.176209 -0.279385
-0.095755 0.354997 0.092633
0.524519 -0.320715 0.098762
-0.597386 0.358937 -0.152631
-0.297428 -0.241306 0.344361
-0.364346 0.472751 0.100283
0.334192 0.340780 0.178003
0.960039 0.016629 0.009318
-0.005559 0.601831 0.278819
-0.113570 0.692663 -0.269018
0.558842 0.144111 -0.273215
0.408940 0.336067 0.066334
0.170660 -0.144060 0.107573
0.016281 -0.409067 0.131576
-0.325033 0.184261 -0.227569
0.609515 -0.352846 -0.246680
0.022652 0.857878 0.056565
-0.636444 -0.151746 0.151867
0.056538 0.674513 0.271162
-0.196146 0.697214 0.077919
-0.427130 -0.318804 -0.192377
0.107351 -0.680587 0.244006
-0.058774 0.916742 -0.062569
0.020033 -0.554363 -0.202784
0.167818 -0.595020 0.134303
0.157897 -0.325015 -0.223789
0.370321 -0.371862 0.110152
-0.081344 -0.719836 -0.187526
-0.729649 0.222421 -0.004414
0.501561 -0.385843 0.103847
-0.559890 0.397785 -0.140748
-0.207352 0.675564 0.079803
-0.049197 -0.718677 -0.189340
-0.374405 0.533275 -0.245456
0.268501 0.502578 -0.278569
-0.663738 0.128220 -0.205869
-0.064995 0.847112 -0.280758
-0.060693 -0.874106 0.163163
0.349032 0.342866 0.069188
-0.301580 0.514434 -0.248301
0.051952 -0.832921 -0.188102
-0.676192 0.277802 0.011877
0.527905 -0.114004 -0.256323
-0.667476 0.175165 0.134287
-0.343945 -0.593259 0.161998
0.353472 0.230048 0.075595
0.283156 0.379863 0.276217
0.154186 -0.632012 0.277888
-0.968592 -0.037806 -0.096169
-0.079511 -0.028881 0.114374
0.335825 0.342696 0.261443
-0.538808 -0.357336 0.158679
0.228343 -0.408335 -0.222705
0.957671 0.002041 -0.099411
0.749397 0.200791 0.055813
0.639094 0.001583 0.247130
-0.394335 0.373366 0.186154
0.512721 -0.458716 -0.155974
-0.315375 0.060648 0.121910
0.005787 0.823775 0.059491
-0.229125 0.210956 -0.234352
0.144685 0.095345 0.300506
0.315077 0.126206 -0.258919
0.728274 -0.156952 -0.264676
0.387108 -0.588175 0.056258
0.128242 -0.658793 0.306189
0.072768 0.129007 0.096798
-0.112901 0.796026 0.067574
0.028979 -0.744647 -0.192056
0.041573 0.771467 0.060630
-0.030018 -0.647038 0.353747
0.641944 0.301273 0.055728
-0.321916 0.448291 0.170148
-0.916869 0.028318 -0.113912
0.631826 0.109164 0.067599
0.097606 0.587801 0.262744
0.179562 0.475561 0.115147
0.123442 -0.664110 0.177405
0.405355 -0.569704 -0.098442
-0.188232 0.723936 -0.266805
0.753797 0.027586 -0.276938
0.563828 0.164019 0.068060
0.426854 -0.139829 0.093407
-0.137159 -0.046523 -0.224174
0.431100 0.079235 0.285898
0.502907 0.036484 -0.263834
0.496283 0.461288 0.054210
0.002020 0.011054 0.313223
0.102394 -0.195210 0.114295
0.276155 0.447286 0.272624
0.218996 0.594558 -0.281301
0.340637 -0.450934 -0.226294
0.793277 -0.085722 -0.272405
-0.513371 0.135448 -0.214462
0.045117 -0.584055 -0.202397
0.040942 -0.648276 -0.198385
-0.733174 0.171107 -0.204624
-0.098163 0.656760 -0.267739
-0.625686 -0.282454 -0.183733
-0.672309 -0.014415 0.145722
0.186438 -0.547160 0.130471
0.659747 -0.306734 -0.236230
0.096202 0.378944 -0.261924
0.081805 -0.268377 -0.222993
0.874952 0.037570 -0.284107
0.014845 0.039556 -0.237504
0.004912 0.720918 -0.277119
0.722740 0.218067 0.056243
-0.458843 -0.404777 -0.185587
0.130932 0.661721 -0.280475
-0.298234 0.105026 0.118363
0.261198 -0.298013 0.111728
-0.500505 -0.190103 0.146743
-0.588512 -0.372037 -0.180473
-0.936715 0.007831 -0.092600
0.096248 -0.019770 -0.238429
-0.423205 0.121508 -0.218539
-0.410691 -0.014024 0.131488
0.229716 -0.061012 -0.243249
-0.609086 -0.127834 -0.193747
0.146760 -0.640047 0.149227
-0.778503 0.171376 -0.179109
0.590384 -0.378265 -0.135354
-0.769609 0.180661 -0.150110
-0.579583 0.377272 -0.187678
-0.232834 -0.356657 0.347651
0.216801 -0.473676 0.124491
0.519195 0.088120 0.280589
0.501162 0.235710 0.067239
0.008160 -0.098268 0.207889
-0.072464 -0.716658 -0.188195
-0.477419 0.450919 -0.235007
0.266216 0.270609 0.250751
-0.204166 0.663484 0.080342
-0.410212 -0.391233 -0.189027
0.727792 -0.232018 -0.260226
-0.880349 0.066117 -0.115970
0.264943 -0.714731 0.022027
0.731462 0.008350 -0.274591
-0.031002 0.879175 -0.284494
0.316035 -0.587360 0.125801
0.191566 0.696511 -0.285819
0.594484 0.086593 0.276589
0.504214 0.357239 0.059911
0.555120 -0.083713 -0.259586
0.499282 -0.281459 -0.244900
0.477426 0.109420 0.281602
-0.485057 0.475913 0.104635
-0.699855 0.253312 0.013694
-0.061030 0.718196 0.111551
-0.286463 0.680849 -0.134420
0.388279 -0.339915 -0.235425
-0.132524 0.592402 -0.262079
0.053112 0.233379 0.091714
0.634568 0.114171 0.067155
0.203957 0.078453 0.298282
-0.778177 0.172495 0.110131
0.288586 0.434154 0.272723
0.096337 -0.727821 -0.196707
0.639252 0.049997 0.263674
0.497496 -0.473837 0.080975
0.258370 0.460140 -0.275518
-0.063130 0.421289 0.217937
-0.526675 0.432034 -0.190442
0.490170 -0.339709 0.101747
-0.705004 -0.298002 -0.178509
-0.163311 0.495500 0.293654
-0.899249 0.031818 -0.187394
0.304521 -0.147151 0.100484
-0.484747 0.475741 -0.077854
-0.278879 0.337174 -0.239088
-0.021854 0.836658 -0.282486
-0.362838 -0.045993 0.130773
-0.633372 0.322018 -0.029444
0.754941 0.044789 0.064705
-0.515587 0.162527 0.126781
0.174680 -0.511459 0.129006
-0.079399 -0.599897 -0.194700
0.094543 -0.324587 0.122346
0.028547 0.712077 0.270469
-0.562117 0.395487 -0.137671
0.716860 -0.089651 -0.268022
0.446641 0.153405 0.075051
0.439045 0.147555 0.075808
0.081305 -0.502828 -0.209149
-0.666007 0.288487 0.063796
-0.217359 0.673245 -0.262235
-0.316959 0.607483 -0.252950
-0.759716 -0.080548 -0.188352
-0.055590 0.374044 0.089329
-0.146140 0.291593 0.099107
-0.282643 0.637301 -0.256571
-0.945028 -0.062955 -0.179323
-0.484389 0.313852 -0.226550
0.560970 -0.172191 -0.254690
-0.862077 -0.133922 -0.179646
0.130111 -0.656770 0.338407
0.491489 -0.480817 -0.201381
0.620182 0.039557 -0.270385
0.062853 -0.513681 0.135211
0.361747 0.468249 -0.281611
-0.434368 0.387113 0.109134
0.192911 -0.733277 0.141088
0.134903 0.429632 0.226690
0.900753 -0.056891 -0.103990
-0.042788 0.823272 0.062159
0.950879 -0.005195 -0.175354
-0.277904 0.199006 0.235541
-0.147745 0.176858 -0.236763
-0.592374 -0.087979 -0.197004
0.308286 -0.271596 0.107613
-0.707864 0.244558 -0.157663
0.059344 0.351119 0.084437
-0.415609 0.351333 0.181897
-0.101606 0.856079 0.063421
0.553125 0.118681 0.276945
0.195658 -0.275399 -0.228764
-0.144157 0.256350 0.101076
0.819572 -0.140786 -0.051109
-0.400598 -0.223081 0.214883
0.822486 -0.138182 -0.203833
-0.189669 0.140511 0.110375
-0.539442 0.419029 -0.112113
0.403297 -0.281255 -0.239698
-0.401366 -0.367600 0.152313
0.673914 -0.254470 -0.255976
-0.369086 -0.190483 0.206724
-0.421174 -0.244183 0.288488
-0.968110 -0.024851 -0.160332
0.091108 -0.101473 -0.233335
-0.041799 0.183477 -0.242908
0.773841 0.192420 0.054979
-0.102410 0.670474 0.280034
0.361513 -0.478610 0.116922
0.308552 -0.669628 0.007150
0.910702 -0.046771 -0.169884
-0.687130 -0.071324 -0.192838
-0.862704 0.084242 -0.168182
0.659755 0.236763 -0.284157
-0.140284 -0.183411 0.126782
-0.241918 -0.616673 0.157836
0.072712 0.561783 0.170673
-0.265737 0.457403 -0.246887
-0.488418 -0.015985 -0.206893
0.581641 -0.348479 0.097295
0.237260 -0.743735 -0.106741
0.114554 -0.673179 0.225737
0.443345 0.267435 0.068510
-0.317679 0.157605 0.151679
-0.426234 -0.350750 0.152176
-0.080857 -0.079653 -0.225280
0.732336 -0.141499 -0.265807
0.122421 -0.028397 -0.239342
0.757166 -0.051691 -0.272449
-0.092932 0.245443 0.098936
0.728710 -0.235188 -0.178109
-0.329999 0.257028 -0.231588
-0.726371 0.083013 0.142917
-0.509592 0.019817 -0.207853
-0.541469 -0.131519 -0.197203
-0.444914 0.049162 -0.213096
-0.521755 -0.029570 -0.204282
0.317728 -0.208439 -0.239341
0.031743 -0.166019 -0.226306
0.294818 0.231611 -0.264030
-0.679796 -0.178146 0.155778
-0.636750 -0.038984 -0.197481
0.180595 -0.503364 -0.214511
0.210897 0.603219 0.061348
0.309703 0.487267 0.062814
0.328705 -0.063405 -0.248484
-0.725122 0.080785 -0.199739
0.018827 0.377854 0.085062
-0.598922 0.357439 -0.118510
-0.095848 0.764755 0.068490
0.048138 -0.086596 -0.231878
-0.575668 -0.241650 -0.188855
-0.512642 -0.461004 -0.179351
-0.325762 -0.178636 0.342207
-0.613838 0.342266 -0.019423
-0.048019 0.058080 0.213464
-0.282815 -0.353025 0.350151
-0.338407 -0.204307 -0.203944
0.563341 -0.076359 0.287884
0.438698 0.341033 0.064425
-0.603008 0.353424 -0.039063
0.638900 0.049922 0.257274
-0.048467 -0.087806 0.164131
0.561527 0.168623 0.067914
0.229515 -0.014415 0.302367
0.466557 -0.007849 0.289104
-0.254282 -0.661465 0.161147
0.116925 -0.670452 0.326970
0.081303 -0.905188 -0.109657
-0.727069 0.049730 0.144916
-0.272129 0.005293 0.122823
0.007369 -0.409971 0.132113
0.081852 -0.523683 -0.207950
0.477504 -0.482809 0.110869
-0.049726 0.099529 0.194276
-0.902333 0.043360 -0.116091
0.364794 0.113300 -0.260859
0.127234 -0.181476 0.112137
0.057932 0.884273 0.053093
-0.015079 0.899754 0.056147
0.584404 0.068313 0.278214
-0.305350 0.529421 -0.248980
-0.664918 -0.113625 0.151167
0.062280 -0.727501 0.148378
-0.237969 -0.058948 -0.217966
-0.082371 0.874165 -0.281409
0.740748 -0.222697 -0.261479
0.634271 0.073082 0.180029
-0.618224 0.006168 0.141571
0.125658 0.273848 0.085389
-0.177217 0.544659 -0.256838
0.128296 0.044729 -0.243971
-0.435500 -0.259009 0.289528
0.056083 -0.101163 0.142346
0.426313 -0.046019 -0.254811
-0.564718 0.393312 0.053796
0.083573 -0.601494 0.344892
0.140556 -0.018386 0.307433
0.165719 0.588400 0.064675
-0.717950 0.223792 -0.208556
-0.320820 -0.174870 -0.206634
-0.218761 -0.031769 0.122108
0.358557 -0.182329 -0.243097
0.836795 -0.099047 0.068736
0.150838 -0.285643 0.116993
-0.271090 0.548878 0.090731
0.449673 0.288198 0.066943
0.033277 -0.603252 -0.200622
0.114644 0.364509 -0.262075
0.558040 0.139744 -0.272914
-0.039005 0.446394 0.266615
-0.517118 -0.476260 -0.178209
0.435519 0.108087 0.086358
-0.081913 0.696647 0.136815
-0.330356 0.635884 0.040687
0.746640 -0.216632 -0.180023
-0.493839 -0.284968 0.151972
0.277450 -0.701731 0.041271
-0.207315 0.628710 0.082563
-0.337858 -0.454965 -0.189201
-0.207024 0.254090 0.104624
-0.014498 -0.609042 -0.197686
-0.364671 0.599708 -0.201078
-0.034124 0.821490 -0.280925
-0.411160 -0.443322 -0.185906
-0.406386 -0.313887 0.354557
0.050081 0.672778 -0.276735
0.499580 0.390249 0.058218
-0.404286 -0.242079 0.350211
-0.060144 0.424142 0.129641
0.534950 -0.026198 0.286470
0.063060 0.552041 0.263008
0.203481 -0.387834 -0.222563
-0.171882 -0.385119 0.346017
0.445628 -0.527596 0.056001
0.648063 0.058429 -0.273012
0.138482 -0.119592 0.107879
0.301759 -0.373938 0.113999
-0.488444 0.348696 -0.228384
0.534583 -0.435784 -0.044793
0.540524 -0.429306 0.077022
-0.445435 -0.269302 0.286801
0.102049 0.205872 -0.252042
0.086866 -0.079955 0.313978
-0.888225 0.058659 0.141298
-0.656348 -0.215587 0.156711
-0.199689 0.574827 0.173521
-0.187708 0.681315 -0.264322
-0.310629 0.340885 0.310768
0.240018 -0.570188 -0.213801
-0.457284 0.239599 0.119072
0.546304 -0.424143 -0.226648
0.537958 0.264882 -0.279198
0.873498 -0.085560 -0.272390
-0.278297 0.565467 -0.252574
-0.117978 -0.587080 0.354991
-0.639811 0.125878 0.135689
0.347153 0.320507 -0.272112
0.357064 -0.333161 -0.234127
0.489322 -0.079361 0.292082
-0.209734 0.760299 -0.126279
-0.074730 0.900500 0.039007
0.240074 0.205035 0.083229
-0.682558 -0.280030 0.161932
-0.238833 0.534199 0.134051
0.076525 0.728144 0.061285
-0.439815 0.522606 0.052423
0.520555 0.414261 0.055663
-0.123008 0.754342 0.070579
-0.029696 -0.608307 0.351447
0.343872 0.432920 0.269792
-0.125778 -0.764382 0.160232
-0.275634 -0.194663 0.340429
0.362900 -0.087659 0.275856
-0.338361 -0.176312 0.342755
0.736703 0.160517 -0.283843
-0.545931 -0.341533 0.158135
-0.292241 0.331725 -0.238041
-0.260350 -0.083188 0.127398
-0.104155 0.673714 0.170643
0.456483 -0.249752 0.098276
-0.633660 0.321524 -0.101932
0.349842 -0.509451 0.119373
-0.412285 -0.002576 0.130900
-0.024366 -0.894346 -0.180336
-0.153953 -0.726943 0.159556
0.039740 0.038318 0.309568
-0.124923 0.847735 -0.258955
0.050442 0.888756 0.053236
-0.453720 -0.137168 0.141082
-0.216297 0.180924 -0.233279
0.313747 -0.120004 -0.244336
-0.006502 -0.152624 0.117701
0.116615 -0.467104 -0.213173
0.034018 0.102006 0.100494
-0.293801 0.400773 -0.242026
-0.264794 0.305452 0.310367
0.345291 -0.334791 -0.233392
-0.186311 0.525388 -0.255208
0.214250 -0.556960 0.129538
-0.163556 0.781174 -0.271519
0.187493 0.100639 0.297869
-0.880517 0.058654 -0.189994
0.118169 -0.067339 -0.236816
0.711683 0.056072 -0.276329
-0.621736 -0.305064 0.160104
-0.466439 0.486481 -0.237699
0.036846 -0.635366 0.349427
-0.207188 -0.229386 -0.209593
-0.957771 -0.019559 0.161447
0.185416 0.681532 0.058117
-0.628417 0.288403 -0.217227
0.489519 -0.197957 0.093429
0.481941 -0.205476 -0.248436
0.011579 -0.633074 0.350664
-0.518278 0.128882 0.128910
0.007081 0.828305 0.059154
-0.108479 -0.219206 0.127164
0.073105 -0.259032 -0.223072
-0.456137 0.391606 0.110052
-0.404839 0.181201 0.119665
-0.271272 0.166656 0.113267
0.301363 0.560888 0.058928
0.734950 -0.108210 -0.267911
-0.798331 0.151205 -0.047629
-0.180287 0.454945 0.296966
0.153370 -0.401227 -0.219052
0.424849 0.168187 0.075364
-0.276994 -0.669484 0.162854
-0.508988 -0.046528 0.138743
0.022562 -0.782971 0.153270
0.637630 -0.329435 -0.164635
-0.094751 -0.019593 -0.228065
-0.847908 0.099939 -0.027552
-0.093817 -0.168747 -0.219325
-0.037270 0.301843 -0.250130
-0.647362 0.219117 0.130604
-0.478813 -0.044838 0.137004
-0.043899 0.441070 0.171204
0.384586 -0.185777 -0.244308
-0.088904 -0.856748 -0.179046
-0.110150 -0.100593 0.120264
0.075749 0.565180 0.264546
-0.487292 0.472944 -0.137768
-0.005928 0.360054 0.087456
-0.281413 0.686333 -0.039407
-0.463239 0.068408 -0.213235
-0.689677 0.146039 0.137209
-0.447598 0.229415 -0.223573
-0.532078 0.025646 0.135744
0.172735 -0.090976 0.280350
-0.323460 0.642911 -0.000383
0.221351 -0.218752 0.109221
-0.807048 -0.031746 0.154062
0.435418 0.324214 0.065594
0.235474 0.324859 0.282049
-0.277466 0.240319 -0.233457
-0.009604 -0.619379 0.351008
-0.318070 -0.389176 0.354197
0.636562 0.049975 0.214957
-0.190297 -0.633064 0.155998
-0.073492 -0.552482 -0.197815
-0.141948 -0.579028 0.355819
0.385602 0.398950 0.169722
-0.143649 0.500636 -0.256067
0.182227 0.205445 0.086347
0.033273 0.450928 -0.262748
0.368291 -0.608090 -0.105096
-0.662685 0.291666 -0.031953
0.345511 -0.424572 0.114606
-0.059748 0.777725 0.065765
-0.111542 0.861836 -0.166660
-0.076612 -0.596238 -0.195067
-0.048810 -0.007619 0.180580
-0.452195 0.471133 0.105151
0.581051 0.020580 0.281209
-0.238152 0.240279 0.280789
0.633838 0.072417 0.171988
-0.100290 0.442355 -0.254988
0.196530 0.124567 0.090337
-0.610392 0.189768 -0.212393
-0.228637 -0.103551 -0.215844
0.059284 -0.835570 0.154375
-0.392557 0.571593 0.077116
-0.283166 0.408006 0.305321
-0.838575 0.109650 -0.009126
-0.348372 0.305142 -0.233426
0.899408 -0.058661 -0.243618
-0.371397 -0.192769 0.245840
0.789809 -0.171749 -0.107654
0.021704 0.768062 -0.280809
0.688190 0.251853 0.056128
-0.145855 0.029323 0.114548
0.571651 0.124481 0.069965
0.529681 -0.099318 -0.257285
-0.131250 0.563721 -0.260458
-0.094141 0.396830 0.295712
0.140851 0.194461 -0.253477
0.110695 -0.633703 -0.203033
