-0.233001 -0.701315 0.031545
0.181495 -0.759152 0.232021
0.874629 0.086143 -0.347982
0.300171 -0.332201 0.343319
0.061553 -0.138786 -0.222209
-0.339539 -0.107824 0.180383
0.123316 0.672855 -0.036655
0.799500 0.156017 -0.324944
0.053620 -0.566297 -0.138388
-0.286242 0.448847 -0.286244
0.837493 -0.058884 -0.222948
0.169134 0.626060 -0.034141
-0.383278 0.520139 -0.286188
0.596534 -0.288712 0.081811
0.344850 0.217127 0.121011
0.601152 0.154349 -0.355896
0.598829 0.207734 -0.014538
-0.289176 -0.327026 0.215595
0.546434 -0.408229 -0.135430
-0.147771 0.890502 -0.385850
-0.279198 -0.543134 -0.095382
0.022217 -0.224604 -0.199997
0.347022 -0.305151 -0.230761
-0.077491 -0.320907 0.199966
0.386242 -0.154437 -0.265508
-0.148208 0.514263 -0.318592
-0.025018 0.527679 -0.338763
-0.273398 -0.389790 0.335006
-0.181027 0.278943 -0.268394
-0.896091 -0.098594 0.190098
0.110193 -0.920461 0.246501
-0.036868 -0.567057 0.315444
-0.009742 -0.825717 0.229503
0.139436 0.589556 0.187968
0.061233 -0.666109 0.344118
-0.117686 0.588404 0.074309
0.459631 -0.168507 0.288906
0.739122 -0.077232 -0.330790
-0.147383 0.230122 -0.263751
0.126638 0.182459 0.057723
-0.185624 -0.332003 -0.149570
-0.044208 0.317513 -0.295375
-0.096267 -0.249316 0.378961
-0.120343 0.616375 0.156735
0.481027 0.447208 -0.243313
-0.059243 0.276978 -0.285390
0.217409 0.084067 0.063802
0.921238 0.114680 -0.132202
-0.596430 0.352814 -0.212485
0.135293 0.389087 -0.334830
-0.825862 -0.018806 -0.118798
-0.013863 -0.889280 -0.066289
-0.323593 -0.089831 0.231371
0.034532 -0.752624 -0.099626
-0.472895 -0.241922 -0.126005
-0.390099 0.428924 -0.267572
-0.065975 0.144334 0.217255
0.192339 -0.599061 0.410320
-0.168047 0.378176 0.061913
-0.553929 0.330840 -0.225226
0.434426 -0.008413 0.050726
0.651833 -0.040756 -0.325391
-0.223925 0.139435 0.116063
-0.653202 -0.252320 -0.098268
0.096340 -0.863405 -0.087018
0.043115 0.134234 0.289779
0.320090 -0.677013 -0.154994
0.100028 0.051638 0.281076
-0.307225 0.224357 0.111523
0.491436 0.128375 -0.335218
0.031860 0.645003 0.192593
0.100947 0.034607 0.278482
0.478756 0.018512 0.039193
-0.580516 0.019754 0.349007
-0.135483 0.611755 -0.339264
0.371610 -0.274350 0.321937
-0.286143 -0.127171 0.176507
0.608777 0.049266 0.014693
-0.132261 0.180488 0.095044
0.018076 0.726038 -0.001281
0.105871 -0.250468 0.144422
0.078194 -0.046890 0.233040
-0.113274 -0.217791 -0.181983
0.168882 0.199698 -0.302991
0.077734 0.553841 0.203680
-0.899350 -0.130826 0.078240
0.139211 0.056851 -0.271129
-0.349295 0.588195 0.047152
0.321855 0.506128 0.105988
-0.051321 0.563050 0.170360
0.058925 -0.888852 0.210783
-0.142824 0.650906 0.207231
-0.914475 -0.056642 0.252516
0.098907 0.744752 -0.311287
0.063890 -0.679279 0.309058
0.471482 -0.095871 0.062355
-0.197216 0.269615 0.087073
-0.673722 -0.276034 0.215928
0.485952 0.381526 0.149283
-0.343349 -0.376699 -0.118420
0.076584 0.774682 -0.049682
-0.485861 0.124549 0.156315
0.714223 0.310842 -0.057116
0.069804 -0.900278 0.203256
0.308299 0.620808 -0.148891
-0.272223 -0.698596 -0.064475
-0.129200 -0.780470 0.055361
-0.102027 0.030555 -0.231623
-0.678226 -0.261137 0.251584
0.076088 0.051237 0.129136
0.238839 0.465769 -0.364436
-0.675874 0.143396 0.179781
0.391800 0.560692 -0.118341
-0.589967 0.187755 0.158944
0.113717 0.356326 -0.325415
-0.177564 -0.606829 0.253789
-0.141451 -0.653481 -0.093692
0.582608 0.144780 -0.000047
-0.025971 -0.370921 0.186531
0.230465 0.609609 -0.391062
-0.447946 -0.227779 -0.132300
0.184608 -0.602364 0.412062
0.021520 0.845291 -0.196135
-0.236957 -0.488583 -0.111960
0.216766 -0.761529 0.227448
-0.649786 -0.094200 0.222014
0.083216 0.747298 -0.345036
-0.330729 -0.374676 -0.120612
-0.047133 -0.752562 -0.087986
0.908986 0.106285 -0.191784
0.035403 -0.574706 0.428001
-0.074491 -0.314805 0.182600
-0.289798 -0.369146 -0.127522
-0.291033 0.663947 0.024188
-0.451567 0.118183 0.300119
-0.159920 0.673716 0.180899
-0.082770 -0.405001 -0.150126
-0.056341 -0.213899 0.160493
-0.659971 0.053467 -0.156446
0.044722 -0.748445 -0.101888
-0.017450 -0.541396 0.420371
0.076350 0.190697 0.063304
0.444363 -0.109268 -0.282538
0.242865 -0.293011 0.343916
0.167814 0.146061 0.058888
-0.074535 -0.325111 0.194401
-0.033951 0.503265 0.025393
-0.470863 0.119575 0.365949
-0.186872 0.127200 0.113143
0.758715 -0.015649 0.005855
-0.927933 -0.043766 -0.051280
0.058168 -0.380381 0.176356
0.708689 0.226834 -0.033908
-0.764413 -0.286907 -0.061014
-0.523474 -0.057407 0.407687
0.153363 -0.841701 0.252001
-0.466889 0.220643 -0.216330
-0.195012 -0.461108 0.316046
0.077669 0.071714 0.149283
-0.069899 -0.046417 -0.221319
0.242891 0.179119 -0.309571
-0.465988 -0.257576 0.227390
0.091375 -0.006036 -0.252140
0.310116 0.049239 0.057311
-0.339138 -0.544098 0.251333
-0.073184 0.068035 -0.242987
0.689408 -0.233330 -0.023441
-0.323250 0.681661 -0.249418
0.185069 0.645342 -0.040144
-0.651637 -0.245343 0.251512
-0.072990 0.024293 -0.234555
0.028641 -0.058569 -0.233028
-0.328633 -0.535240 -0.089855
0.648270 0.135456 -0.358965
-0.076513 0.139856 0.094949
-0.269253 -0.689152 -0.026319
0.210931 -0.598828 -0.154541
-0.083514 0.256129 -0.277894
-0.006788 0.809673 -0.385715
0.009994 0.355984 -0.310550
0.450725 0.467449 -0.259438
-0.780007 -0.252854 0.006334
-0.670125 -0.271723 -0.092100
0.356401 -0.459207 -0.202303
-0.468292 -0.062837 -0.161300
0.297631 -0.701321 0.199798
0.475343 -0.000102 0.043280
-0.086470 0.564879 -0.337190
-0.107750 0.603198 0.148188
-0.249128 0.146402 -0.233041
-0.006455 -0.048409 0.274916
0.801474 0.149270 -0.341268
-0.630786 -0.169212 -0.117540
0.713435 -0.158224 0.039893
-0.018940 -0.146995 0.142216
-0.081131 0.155147 -0.258702
0.435936 -0.213792 -0.261118
0.375676 0.351011 -0.361764
-0.005618 -0.802243 -0.084300
0.872954 0.154408 -0.133967
-0.011617 -0.193521 -0.201182
-0.778750 -0.044948 -0.120464
0.526654 -0.433842 -0.231500
0.144249 -0.460760 -0.171732
-0.282522 -0.149330 -0.171077
0.176122 -0.001833 -0.265045
0.484326 0.100910 -0.328892
-0.169058 0.201637 0.096204
-0.204107 -0.016156 -0.208023
-0.152783 0.278652 0.078985
0.245681 0.288009 -0.331030
0.016424 -0.608600 0.408533
0.371910 -0.083102 0.110957
0.399560 -0.365699 0.127265
0.925362 0.050482 -0.065792
0.087427 -0.525224 -0.151156
0.329937 -0.119566 0.087133
-0.344729 0.007050 -0.192448
-0.544529 -0.088041 0.372941
0.044373 -0.434939 0.188877
0.534356 -0.417542 0.112107
-0.149139 -0.476514 -0.126824
-0.056822 -0.193994 -0.194641
-0.376556 0.105472 0.144409
0.303783 0.614553 -0.051127
0.097930 0.072263 -0.268220
-0.152093 -0.079954 0.184674
-0.030864 0.671450 0.196427
0.239747 0.587199 0.174112
-0.150757 -0.740648 0.125253
0.184948 0.328071 0.049150
0.549320 0.144871 -0.346668
0.460460 -0.291872 0.143418
-0.791698 -0.211922 0.106123
-0.455907 0.438457 0.091326
0.114724 0.602996 -0.373269
0.507084 -0.185459 0.074603
-0.457205 -0.305198 0.235348
-0.292104 0.617052 0.033411
-0.601793 -0.086985 -0.137581
0.374140 0.514398 -0.313661
0.025771 0.192497 0.070173
-0.156638 0.771184 -0.367082
-0.176741 0.676218 0.005507
0.004351 0.399282 0.033233
-0.138150 -0.050601 -0.210771
0.860951 -0.005535 -0.362040
0.723201 -0.193171 -0.052473
-0.471320 -0.365534 0.249032
0.168831 0.057522 -0.275485
-0.236239 0.790467 -0.069916
-0.584813 0.093547 0.358254
0.073429 0.023189 0.098413
-0.194179 -0.503651 -0.115149
-0.585310 0.366214 -0.213309
-0.680506 -0.262632 -0.092377
0.209536 0.047347 0.072028
0.259346 0.627214 -0.047236
0.641440 -0.294575 -0.181758
-0.101724 -0.774623 0.147436
-0.527731 -0.314750 -0.104095
0.665509 -0.081061 0.031806
0.129071 -0.352511 -0.190504
0.091324 -0.900014 0.261565
-0.343179 0.639647 -0.315025
-0.299398 -0.150084 -0.168523
0.906377 0.022979 -0.282002
-0.455634 -0.395636 -0.098737
0.084988 -0.693814 0.318872
0.043332 -0.671024 0.280589
0.128495 -0.788635 0.245285
-0.024055 0.086264 -0.253523
0.406921 0.536318 -0.050711
0.891466 0.157623 -0.046599
-0.146573 0.166678 0.099757
0.310305 0.600589 -0.208249
-0.319826 -0.037124 -0.187457
0.003380 0.647706 -0.366030
0.310039 -0.637330 0.190117
0.126581 0.105981 -0.278829
-0.064157 -0.360935 -0.161305
-0.659280 -0.296329 -0.088888
-0.001094 0.624756 0.201211
-0.015121 -0.121387 0.136718
0.020736 -0.897697 -0.069598
-0.780743 0.139069 0.194758
-0.174638 -0.175083 0.169864
-0.617879 0.238279 0.153154
-0.360615 -0.314889 0.223441
-0.131023 -0.077531 0.185717
-0.234792 0.120108 0.181868
0.275296 -0.186029 0.107784
0.455377 0.373978 0.039548
-0.752971 -0.215233 -0.091206
-0.134922 -0.026511 0.346272
0.126783 0.644123 0.026799
-0.129496 0.164938 0.097657
-0.574700 -0.054431 0.349189
0.232605 0.325090 0.166854
-0.183816 0.027376 -0.219338
-0.481570 0.086847 0.373807
-0.032778 0.023145 0.322094
0.116518 -0.101582 0.114105
-0.270318 -0.071373 0.303190
0.528015 0.001159 0.035521
0.367435 0.487607 0.168411
0.599105 -0.095830 -0.307215
0.226912 -0.788113 0.131187
-0.289964 0.586316 0.039051
-0.047696 -0.034803 0.335431
-0.187006 0.000408 0.348497
-0.329344 0.161768 -0.224568
0.752321 0.065786 -0.360336
0.177635 -0.435029 0.380692
-0.168298 -0.215855 0.176846
-0.184054 -0.703492 0.155268
0.059363 0.469702 -0.339589
0.248079 0.551425 0.053979
-0.131266 0.714535 -0.008393
0.338586 -0.267025 0.325232
-0.004541 0.357959 -0.308858
-0.110344 0.612714 0.171715
-0.897953 -0.061108 0.251022
0.869511 0.119549 -0.254731
0.206138 -0.810948 0.236166
-0.312169 -0.654192 -0.029017
0.282110 -0.371852 0.353565
0.287430 -0.059345 0.081550
0.792889 -0.047092 -0.344291
0.577710 -0.026743 0.033827
-0.784443 -0.254364 -0.079147
-0.453213 -0.209643 0.216296
0.383487 0.153789 -0.324732
0.100228 -0.315062 -0.193632
-0.347885 -0.241820 0.207491
0.397304 0.407695 -0.007596
-0.169502 0.867086 -0.253865
0.286227 0.266912 0.123828
0.082075 -0.040691 0.265500
-0.189478 0.128896 0.204182
0.716743 -0.199491 0.016852
0.248867 -0.739304 0.218569
-0.449906 0.528995 -0.241717
0.698581 0.008868 0.009693
-0.127151 0.770747 -0.371205
0.105025 -0.654433 -0.128676
-0.183147 -0.495992 -0.118205
0.409559 0.430409 -0.381955
-0.282785 0.240973 0.104822
0.147136 0.672200 -0.391279
-0.180356 -0.231885 0.392478
0.412699 -0.480618 0.145159
0.810007 0.231665 -0.054778
-0.546092 0.227499 0.144997
-0.440776 -0.480268 0.184246
0.166260 0.700654 -0.272589
0.123402 -0.654165 -0.131350
0.226587 0.485307 0.195697
0.049875 -0.048096 0.243135
0.381978 0.544677 -0.048769
-0.309357 0.095394 -0.214582
0.951495 0.081699 -0.080649
0.147405 -0.017652 0.093465
-0.626946 0.316282 -0.198870
0.087331 -0.082755 -0.236724
-0.080570 0.143838 0.094757
-0.054655 0.297838 -0.290079
-0.377520 0.613531 0.046279
0.312178 0.512038 0.099064
0.472608 -0.165704 0.075701
-0.193350 -0.197950 -0.174396
0.462314 0.379948 0.077177
-0.687430 -0.144911 -0.114159
-0.216414 -0.690199 0.111411
-0.154540 -0.361563 0.413877
-0.478490 -0.221525 -0.129152
0.064035 0.243879 0.054775
0.610449 -0.328213 -0.004973
0.011926 -0.230303 0.153926
-0.027547 0.469345 -0.327120
-0.220498 -0.255533 0.205945
-0.232917 0.790197 -0.271229
0.199257 0.514909 -0.368293
-0.217400 0.421455 -0.290768
-0.035271 0.257118 -0.284969
0.209072 -0.458621 0.380769
0.481552 0.391647 -0.033377
0.579932 0.161859 -0.354322
0.224198 0.637619 -0.319639
0.114505 -0.032008 -0.250417
0.500903 0.070604 0.025957
0.024325 0.659008 0.190959
-0.290285 -0.533982 0.255782
-0.039361 0.178067 -0.269095
-0.758379 0.117592 -0.154808
-0.096819 0.845483 -0.038635
-0.058095 0.326338 0.056252
-0.176101 -0.004880 -0.214200
-0.047331 -0.279832 -0.179392
-0.078894 0.928023 -0.199459
-0.120680 0.836735 -0.384891
-0.012452 0.141297 0.168356
0.742231 0.000335 0.005116
-0.210944 0.168486 -0.242761
0.130504 0.543744 -0.364060
0.660062 -0.274131 -0.277083
-0.270158 -0.563600 -0.092713
0.158973 -0.867605 0.248158
0.000492 0.792623 0.164874
-0.749313 0.169550 -0.155509
0.175814 0.605661 -0.382501
0.320392 0.470354 -0.376959
-0.701451 -0.103656 0.231215
0.285689 -0.295898 -0.223800
-0.406678 -0.411972 -0.102562
0.278027 -0.141120 0.098709
-0.627203 0.282101 0.146009
-0.453308 0.529210 -0.038445
-0.021279 -0.589297 0.369644
0.470582 -0.053407 -0.297083
-0.054522 0.188614 -0.268972
-0.204899 -0.073072 0.254714
0.231479 -0.420774 -0.191912
0.012301 -0.221426 0.152155
0.337601 0.170206 0.029993
-0.231388 0.006064 -0.208428
0.027441 0.845778 -0.056422
-0.763925 0.098968 -0.150415
0.227727 -0.318944 -0.211073
0.730574 -0.037571 -0.337242
-0.033402 -0.594813 0.319621
0.079815 0.673638 0.180212
-0.107596 -0.463155 -0.135336
-0.088796 0.943656 -0.175861
0.391078 -0.058011 0.242439
-0.013742 -0.468211 -0.147749
0.318334 -0.314881 0.337378
-0.090796 0.667617 0.205719
-0.339539 0.609071 0.041723
0.010542 -0.213016 0.150779
0.274919 0.482181 -0.372758
-0.689555 0.142432 0.181920
-0.079038 0.759195 -0.375835
-0.453026 -0.218678 -0.133336
0.675703 -0.255056 -0.267602
0.265692 0.005659 0.072079
0.094242 -0.110712 -0.232303
0.388953 0.040112 0.047828
-0.408535 -0.086612 0.299992
-0.504973 -0.488860 -0.073666
-0.869811 -0.107112 0.233006
-0.000404 -0.065474 0.175590
-0.516517 -0.131916 -0.141058
-0.225347 -0.640414 0.246898
-0.245276 -0.383162 -0.131163
0.025480 0.126050 0.293878
0.489092 -0.187175 0.090745
0.137727 0.045024 0.082723
-0.321436 -0.148306 -0.165722
-0.295385 0.032813 -0.204471
0.147002 0.258321 0.040144
0.637567 0.149725 -0.360198
-0.868305 -0.178695 0.007924
-0.334743 0.033390 0.363197
0.268187 0.258156 0.047635
0.428886 0.509106 -0.184423
0.081308 0.425624 0.084647
-0.044406 -0.296471 0.366512
-0.405313 0.571262 0.058420
-0.066763 0.191207 0.083625
-0.737060 -0.182266 0.251500
-0.095459 -0.353616 -0.158254
-0.446012 0.353000 0.106443
0.345081 0.535603 -0.323385
0.305200 0.328648 -0.347383
0.151841 -0.660301 0.329960
-0.199962 0.384928 -0.286191
-0.324643 -0.619482 0.048769
0.136065 0.406207 0.168706
-0.046473 -0.252178 0.166489
0.114932 -0.678487 0.436727
-0.242417 0.172753 -0.239095
0.138209 0.696729 -0.043397
0.741925 0.286289 -0.061733
-0.008779 -0.556979 0.430876
0.543045 -0.196468 0.071601
-0.321978 -0.655795 -0.060336
-0.751610 -0.174483 -0.099282
-0.843625 -0.162241 0.126483
0.752223 -0.157940 -0.042539
-0.478961 -0.452676 -0.084376
0.068487 0.736772 0.167671
0.515427 0.321494 -0.375994
0.431445 -0.141643 0.082556
-0.381982 0.046692 0.367364
0.456488 0.506619 -0.118688
-0.435494 -0.092930 0.280605
0.113785 -0.387427 0.214047
0.076507 0.824000 -0.117462
-0.285178 -0.584494 0.264824
-0.042649 -0.727928 -0.093390
0.509604 0.095742 -0.331499
-0.066387 0.836130 -0.392521
0.792115 -0.109828 -0.043603
0.421115 0.441692 0.164788
-0.281094 -0.174713 -0.166371
-0.074328 0.544771 0.050429
0.332359 -0.445241 0.200075
-0.420903 -0.200309 0.209881
0.160301 -0.440562 0.384235
-0.411531 -0.137420 -0.154973
0.826460 0.018284 -0.010374
-0.072377 -0.812795 0.103620
0.410938 -0.142253 -0.271388
0.704867 -0.156281 -0.310613
0.187021 -0.681379 0.216189
0.199698 -0.013813 0.085261
0.522758 0.431298 -0.182811
0.034311 -0.701391 -0.109504
-0.149157 -0.699531 0.261121
0.490149 -0.290655 -0.253987
0.376931 -0.433033 0.141058
0.070548 0.082541 0.109499
0.182659 -0.469181 -0.175584
0.289284 0.627495 -0.178258
0.275732 0.614872 -0.254844
-0.087067 -0.636724 0.246659
0.664186 0.245545 -0.031177
-0.914439 -0.157468 -0.047318
0.502130 -0.153107 0.234594
0.254861 0.200475 -0.315409
-0.518120 0.367264 -0.237380
0.245292 0.140709 0.048869
0.049105 0.659306 -0.374798
-0.482064 -0.366099 0.250674
-0.106081 0.051514 0.327066
0.305177 0.441152 -0.369140
-0.295289 -0.396588 0.254800
0.290772 0.647844 -0.109159
0.347019 0.609091 -0.056240
-0.292112 -0.317829 -0.137117
0.646506 -0.089911 0.036229
0.009639 0.498439 0.126336
-0.049536 0.421196 -0.314669
-0.361718 -0.171964 0.195954
-0.495342 -0.106113 0.242285
0.057692 0.828180 -0.154318
0.815041 -0.081397 -0.007471
-0.185955 0.770660 -0.011445
-0.085832 -0.821869 0.038655
-0.571363 0.059485 0.391911
0.281060 -0.702724 -0.144452
-0.141250 -0.066775 0.252141
0.007164 -0.650236 0.250552
-0.005922 -0.264810 -0.188206
-0.624026 -0.253056 0.249064
0.432025 0.465659 -0.315096
0.362366 -0.042972 0.067692
-0.232973 -0.649897 0.196186
-0.629396 -0.163806 -0.118784
0.309190 0.257046 0.153561
-0.113140 -0.070862 0.212481
-0.415854 0.366223 -0.251770
0.426427 -0.156130 0.291250
0.551749 0.399527 -0.207086
0.368214 -0.398930 0.343427
-0.017162 -0.412227 -0.158089
0.529005 0.410848 -0.231581
0.388964 -0.315452 0.327411
0.294107 0.086709 0.052348
0.561028 -0.173947 0.064679
-0.026149 -0.042907 0.317499
-0.340352 -0.273304 -0.138846
0.063964 -0.964485 -0.062847
0.527133 -0.194473 0.168958
0.296162 -0.444107 0.365536
-0.265978 -0.369104 0.421025
-0.422247 -0.530833 0.071886
-0.200299 -0.694905 0.139378
-0.632502 0.109654 0.180119
0.740517 -0.172776 -0.075926
-0.875703 -0.107803 0.215063
0.245979 -0.710723 0.213453
0.266146 0.393749 0.207762
0.307823 0.053115 -0.294464
-0.276096 -0.616474 0.188017
0.647244 0.301507 -0.265828
0.197753 -0.586777 0.407172
0.797925 0.190750 -0.217987
0.366281 -0.220726 0.312325
0.254306 0.191577 0.037744
0.311696 0.517665 -0.384869
0.407622 0.521569 -0.201312
-0.426619 -0.106467 0.199386
-0.058907 -0.527884 -0.129763
-0.184130 -0.684938 0.214451
-0.006114 0.385419 0.037408
0.342871 0.467584 0.038742
0.362745 -0.315281 0.331118
-0.119298 0.738059 -0.014650
-0.128269 -0.329627 -0.158213
0.282076 -0.437638 0.366295
-0.195854 -0.235991 -0.166680
0.408096 -0.564458 -0.189321
0.164474 0.598591 -0.018295
-0.872039 0.008174 -0.117428
-0.071281 -0.186501 0.157326
-0.554941 0.088415 0.194686
0.265735 -0.680115 0.204714
-0.478608 -0.152845 -0.142419
0.160215 0.622611 0.178610
0.578755 0.172401 -0.356192
0.173292 -0.079078 0.101652
0.080484 -0.441267 0.395760
0.854560 -0.040187 -0.312140
0.093839 -0.722901 -0.113837
-0.459961 -0.300682 0.234867
-0.083508 -0.445372 0.209141
-0.084679 0.392537 -0.304112
0.410244 -0.461669 0.141844
-0.370905 -0.291506 -0.130966
-0.299880 -0.162263 0.185254
0.427869 0.318707 -0.362962
0.562321 0.392142 -0.044997
0.083605 0.047628 0.089942
0.272164 0.211145 0.031411
0.295004 0.517230 0.069828
0.190640 0.588846 0.020382
0.322431 -0.661818 0.193085
0.296985 -0.025571 0.073654
-0.255789 -0.398406 0.354447
-0.519736 0.121141 -0.189545
-0.574324 -0.009466 -0.156494
0.015889 0.884562 -0.085485
-0.651317 0.287419 -0.173283
-0.404220 0.057691 0.368410
-0.253493 0.544839 -0.309483
-0.285545 -0.213723 -0.158190
0.409020 0.146812 -0.327025
-0.051346 -0.008550 0.330874
0.398577 -0.494038 -0.201583
-0.056023 -0.321389 0.255741
-0.289683 -0.399315 0.261042
-0.474900 -0.503100 0.020062
0.316756 -0.324782 0.339518
0.154575 -0.659080 0.232161
-0.695773 -0.315725 0.030022
0.316482 0.486913 0.030146
0.050156 -0.574196 -0.136366
-0.353766 0.643521 -0.311386
0.004362 -0.177675 0.144826
-0.106836 0.074905 0.322649
0.759704 0.228876 -0.198013
0.170344 0.363989 0.125113
-0.028036 -0.432499 0.198736
-0.605642 0.052990 0.206182
-0.564926 0.397598 0.106006
-0.556997 0.019785 -0.164624
-0.074859 0.109990 -0.250863
-0.370387 -0.126092 0.188318
-0.368761 -0.438320 0.248476
0.362568 0.504431 -0.038215
0.222894 -0.524263 0.391493
-0.890279 -0.102225 0.193999
-0.304952 0.641990 -0.320932
0.027313 0.869747 -0.102399
-0.369193 -0.018437 0.378137
0.193084 0.667726 -0.306355
0.184040 0.072684 -0.280587
-0.668990 -0.277406 0.224176
-0.327065 -0.202795 -0.154380
-0.227113 -0.451502 0.261079
0.589786 0.352739 -0.255273
0.093800 -0.647316 0.433713
0.553859 0.389749 -0.232748
0.129434 0.624857 -0.027787
0.289557 0.550144 0.160628
0.268743 -0.606084 0.189966
0.528826 0.338841 -0.381261
-0.793140 -0.185041 -0.091314
0.017046 -0.601506 0.432898
0.669469 0.291542 -0.238379
0.732210 0.214696 -0.316808
0.256772 -0.349082 -0.209388
0.130702 0.385304 -0.333444
-0.215666 0.323279 -0.272027
0.326260 -0.650633 -0.160977
0.571468 0.100698 -0.341284
0.224732 0.592300 -0.035544
-0.220505 -0.136954 -0.182319
-0.039741 -0.181248 -0.199543
0.708791 0.294246 -0.124734
0.531236 0.032848 -0.322420
-0.107758 0.875720 -0.394275
0.207333 -0.013962 0.084201
-0.504991 0.245339 0.135682
-0.224143 0.520750 -0.309012
0.706053 -0.082810 -0.324993
0.490313 -0.266838 0.092736
0.488236 0.491949 -0.080871
-0.768049 -0.266201 -0.079196
0.093804 0.082875 0.081669
-0.080997 0.767714 0.184961
0.628625 -0.311785 -0.263895
-0.134134 0.535152 0.026713
-0.957902 -0.126270 -0.063516
-0.592007 -0.045795 0.243761
0.322150 0.268121 0.223612
-0.064669 -0.406009 -0.152514
0.184124 0.732261 -0.123734
-0.742899 -0.241112 0.142993
-0.014372 0.777080 -0.388521
0.312657 0.036209 -0.291883
-0.278804 0.620170 -0.320442
0.379512 -0.082625 0.132780
-0.289414 -0.203879 0.191810
0.227689 0.085581 0.062043
-0.345574 0.547709 -0.296900
-0.837761 -0.195261 0.036457
0.415982 0.411178 0.053421
-0.419039 0.566814 -0.214747
0.253765 0.532136 -0.028050
0.373808 -0.217354 0.310599
-0.446540 0.536179 -0.094779
0.063866 -0.451488 -0.162056
-0.110725 -0.808801 0.014014
0.203365 -0.152582 -0.239774
-0.321623 0.195421 -0.232179
0.035149 -0.902713 0.102936
-0.641375 0.149571 -0.177688
0.182990 0.703226 -0.219687
0.527061 -0.340996 -0.249517
0.129584 0.528173 0.201247
-0.275115 0.111425 -0.222568
0.639873 -0.156880 -0.301224
0.086518 -0.672198 0.392139
-0.033868 0.788713 0.174175
-0.163458 -0.233589 0.390397
-0.207773 -0.121748 0.164276
0.501352 0.208797 -0.000836
0.085464 -0.709428 0.270171
-0.438617 -0.516480 -0.077791
-0.003573 0.758210 0.043883
-0.935220 -0.097185 0.090134
0.423969 -0.032368 -0.294502
-0.054945 -0.605896 -0.115239
-0.402854 -0.343653 -0.116322
0.145664 0.411401 0.210958
-0.214160 -0.576012 -0.098302
0.708656 0.055536 -0.000771
-0.075223 0.257027 0.072102
-0.268603 0.086845 -0.218743
-0.045419 0.793152 0.174964
0.427633 0.495667 -0.230782
0.575117 -0.149276 0.057897
-0.960062 -0.086725 0.057280
-0.303325 -0.391141 0.250776
0.907976 0.109060 -0.039562
0.054454 0.775930 -0.046766
0.640347 0.210204 -0.020940
0.026321 -0.565402 0.427498
-0.203557 0.627991 -0.332691
-0.244040 -0.344928 -0.138735
-0.914653 -0.028792 -0.100678
0.059515 0.138837 0.286549
0.043597 0.064629 -0.258991
-0.537944 -0.446745 0.032099
0.486816 -0.237764 -0.263741
-0.004860 -0.904397 -0.064650
-0.103327 0.121736 0.112731
-0.048761 -0.655773 -0.106474
-0.096037 -0.078703 -0.211345
0.416117 0.033872 -0.306193
-0.306464 0.612774 0.036287
0.472030 0.368543 0.066618
-0.096107 -0.072041 0.195731
-0.732666 -0.240938 0.170875
-0.214791 -0.035532 -0.202751
0.325219 -0.589089 -0.172732
-0.258001 -0.078582 0.255417
-0.125195 0.905954 -0.046283
0.088491 -0.705640 -0.116412
-0.527874 -0.384455 0.258344
-0.355569 -0.585057 0.076371
-0.327458 0.409962 -0.272842
-0.755762 -0.070316 -0.118837
0.010741 -0.258184 0.159488
-0.141961 0.205009 0.091685
-0.647391 -0.016713 -0.144667
-0.632112 0.229978 0.156791
-0.066858 0.543068 0.064922
-0.072857 0.595293 -0.345015
0.277682 0.538740 -0.032740
-0.412560 0.376778 -0.254282
-0.326509 0.165126 -0.225622
-0.174348 0.741765 -0.007512
-0.064376 -0.349197 0.398620
0.756055 -0.157408 -0.235068
-0.189332 0.633296 0.026691
-0.495079 0.211191 -0.210480
-0.417928 -0.104617 -0.160405
0.182838 0.722581 -0.158147
-0.390927 0.072680 0.363614
-0.504888 -0.319648 0.244946
-0.724315 -0.317747 -0.052658
0.538868 0.224309 -0.009189
-0.138078 0.883842 -0.391520
0.028632 -0.069246 0.137146
-0.085584 0.265230 0.071993
0.065513 -0.749270 -0.104695
0.438266 0.107670 -0.323627
-0.399398 0.040986 -0.191211
-0.165255 0.610354 -0.334745
-0.549955 0.148155 0.160894
-0.807930 -0.014960 0.229252
0.104717 -0.797072 -0.101043
-0.581127 -0.423805 -0.009784
-0.297290 -0.213113 -0.156633
0.429742 -0.092559 0.235102
0.090262 -0.843876 -0.089928
-0.558495 -0.423998 -0.078575
-0.193480 -0.082415 0.195509
-0.565406 0.175792 0.157754
0.401187 0.519849 -0.224000
-0.103093 0.738429 -0.000569
0.732236 -0.181105 -0.309717
-0.949226 -0.108807 -0.083789
-0.101766 -0.305130 0.185643
-0.067315 -0.389316 0.329942
-0.060384 0.894058 -0.053229
0.349518 0.459378 0.030224
0.016846 -0.497019 0.204811
0.336923 -0.165714 0.305874
-0.019259 0.493369 0.032949
0.040802 -0.686387 0.238021
0.303351 0.581344 -0.288407
0.323529 -0.113839 0.086940
-0.015410 0.181431 0.078189
0.041967 -0.920551 -0.068206
-0.197974 0.837608 -0.024336
0.112190 0.333413 0.030587
0.488804 0.227751 -0.354064
0.383922 0.424608 0.010804
0.675176 0.158763 -0.015960
0.650573 -0.058694 -0.321742
-0.356113 -0.047622 -0.180249
-0.244521 0.577676 0.034238
0.311638 -0.469099 0.253867
0.460954 -0.289215 0.240365
-0.631024 0.218725 -0.192541
0.377956 -0.086791 0.115290
0.006440 0.134007 0.116217
0.440100 0.492362 -0.046943
0.278294 0.441990 0.196698
0.191322 -0.643293 0.208209
-0.584734 0.356383 -0.225771
0.569053 0.229602 -0.365872
-0.639650 0.022574 0.197982
0.121825 0.770597 -0.167381
-0.645727 -0.361473 -0.078222
0.335573 0.373564 0.201760
0.145492 -0.817251 0.248395
-0.228640 0.526677 0.041836
0.078209 0.114705 0.173962
0.004346 0.478058 -0.333355
-0.607700 0.065688 0.199415
-0.570148 -0.417091 0.041021
-0.671069 0.254290 -0.193706
-0.175174 0.635976 -0.338285
0.654415 0.239214 -0.379910
-0.239772 0.032308 -0.212308
-0.208442 0.311170 0.080637
-0.352571 -0.077779 0.316224
-0.431248 0.105400 -0.199126
-0.227562 -0.508503 0.241905
-0.062831 -0.681095 0.251784
-0.225517 0.460409 -0.297145
0.205805 -0.764834 -0.121702
-0.604707 0.054219 0.212717
-0.388398 -0.330651 0.230453
0.448947 0.025979 -0.309351
0.194190 -0.503504 0.391574
0.654480 0.321779 -0.181627
-0.620679 0.298634 0.141880
-0.386071 -0.604267 -0.066550
-0.591723 -0.096876 0.220304
0.577166 0.018358 0.025181
-0.601819 0.068615 0.238140
0.251024 0.531472 -0.027530
-0.154887 0.336067 -0.283172
0.246822 -0.299215 -0.217613
0.246422 0.396240 -0.352070
0.601168 -0.337404 0.089520
-0.423863 0.446118 0.085272
0.276972 0.650531 -0.137405
-0.283135 -0.333794 0.426854
0.525348 0.351323 -0.383179
0.165996 0.564723 -0.373182
0.119823 0.646224 0.014940
-0.109915 0.645247 0.212774
0.639252 -0.203318 -0.292153
0.188099 0.357499 0.151747
0.688338 -0.236181 -0.096812
0.032735 -0.659337 0.289700
0.566877 0.075391 -0.335734
-0.261182 0.740538 -0.346238
0.320121 0.003952 0.064643
-0.612076 -0.094759 0.216742
-0.450471 0.101026 0.203228
-0.302227 -0.351109 0.349068
0.296922 0.226707 0.024868
0.548123 0.319449 -0.028911
0.100425 0.039239 0.277465
0.446183 -0.095330 0.270131
0.056297 -0.874385 -0.079180
0.167943 0.302833 -0.322806
-0.780086 -0.184652 0.224406
0.480025 0.051063 0.032716
-0.485908 0.172540 -0.204313
-0.164899 0.874528 -0.165041
0.941542 0.067346 -0.190907
-0.433281 -0.305967 0.232083
0.381552 0.067815 0.043526
0.569569 -0.190974 0.066754
0.213820 0.259471 -0.320964
0.263820 -0.339613 -0.212225
-0.058281 -0.778071 0.252394
-0.458814 0.112359 0.271767
0.894741 0.009886 -0.237417
-0.281826 -0.088859 0.211958
0.289853 -0.157607 -0.251142
-0.615864 -0.164327 -0.120614
0.222285 0.605803 0.159149
-0.148187 -0.777406 -0.068762
-0.433437 0.153429 -0.208103
-0.140957 0.900357 -0.309013
-0.393469 0.603027 0.037407
-0.649652 0.020296 0.199850
0.843888 0.152017 -0.219231
-0.035334 0.478872 -0.327851
-0.175545 0.863257 -0.090877
0.124318 -0.868434 -0.090037
-0.058027 -0.311570 0.281818
0.705637 -0.019063 0.014089
-0.752472 -0.287404 -0.030724
0.199657 -0.826095 -0.108577
0.490313 -0.301210 0.099384
0.768822 -0.131994 0.026917
-0.352257 -0.097721 0.204176
0.307979 -0.037812 -0.276899
0.108873 0.279845 0.041421
-0.001812 -0.612064 0.348758
-0.842137 0.061961 0.052310
0.095958 -0.792027 -0.100769
-0.077455 0.204236 0.082631
-0.695191 0.237499 -0.031143
0.392232 0.401228 0.188325
0.474543 -0.129447 0.236661
0.954297 0.084202 -0.121995
-0.579291 0.028900 0.361295
-0.481076 0.067949 -0.184772
-0.544950 0.091409 0.205529
0.226593 -0.270525 0.341888
0.318504 0.209235 -0.326184
0.150935 -0.470770 0.391414
0.695440 0.056650 0.000900
0.065283 0.808545 -0.196892
0.093139 0.076794 0.249847
-0.711097 -0.097763 -0.119901
-0.121515 0.165869 0.096338
0.130289 0.336303 -0.323907
-0.043034 -0.590751 0.306905
0.189264 -0.332778 0.359255
0.936845 0.068135 -0.239497
0.147441 -0.802602 -0.106069
-0.716802 -0.014197 -0.135250
0.176178 0.263450 0.034989
-0.100340 0.141080 0.098112
0.528620 0.449198 -0.109867
-0.807624 0.016376 -0.128205
0.251061 0.652807 -0.199306
0.090878 0.085765 0.239954
-0.215267 -0.372908 -0.137428
-0.731545 -0.199157 0.253980
0.329091 -0.446043 0.347822
0.051530 0.008532 0.312891
-0.568099 0.325000 0.129278
-0.385086 0.114864 0.241928
0.062804 -0.059200 0.173154
-0.465624 -0.129395 0.202545
0.317186 -0.606642 -0.168191
0.231321 0.568999 0.065481
0.264708 0.584783 -0.380579
0.764181 0.182943 -0.333068
0.274714 0.602698 -0.296526
-0.109268 -0.244694 0.384813
-0.389900 0.179983 -0.219451
-0.290535 -0.473814 -0.107172
-0.286686 0.174149 -0.233049
0.485557 0.019688 -0.313358
0.292538 0.427777 -0.364749
-0.267890 0.422643 0.067558
0.282367 0.650628 -0.122689
-0.546691 0.037837 -0.169586
0.089006 0.068744 0.295898
0.220776 -0.389958 0.365819
0.758303 0.217627 -0.237757
-0.006488 -0.583309 0.428301
0.444991 0.392723 -0.028369
-0.155027 -0.145327 -0.190042
-0.020896 -0.333001 0.344300
0.262415 0.544577 -0.031690
0.726438 -0.038769 0.014933
0.271143 -0.497387 -0.182753
0.153048 0.155512 -0.292186
0.515791 -0.415411 0.117837
-0.281610 -0.657479 0.042057
0.647031 -0.033209 0.025187
-0.798792 0.115769 0.123124
-0.319857 0.242445 -0.241526
0.134504 -0.078855 -0.244209
0.028100 -0.366156 0.177894
0.067007 -0.050076 0.221833
-0.594059 0.118428 0.172937
-0.045731 0.779785 0.000370
0.685454 0.185945 -0.022683
0.574375 0.428438 -0.054146
-0.801376 -0.145325 -0.097821
-0.961187 -0.113227 -0.030543
0.026804 -0.622766 0.390909
0.286650 -0.633131 0.192642
0.068751 0.100168 0.106826
0.279334 -0.660704 -0.152333
0.339004 0.457228 -0.004730
0.578304 0.021925 0.024329
-0.200784 -0.040240 0.358325
0.169589 0.229100 0.042573
0.908931 0.027333 -0.222134
0.130232 0.422056 0.203857
0.847765 -0.041963 -0.009913
0.363658 0.564165 -0.182369
-0.625956 -0.314559 0.220167
-0.477194 -0.192207 0.216345
-0.427522 0.107648 0.226713
-0.078098 -0.413985 0.202298
-0.839024 -0.143117 -0.092876
0.668072 -0.100758 0.035250
0.425182 -0.133225 0.092775
-0.339999 -0.287667 0.215234
0.312639 -0.425181 -0.202640
0.218385 0.376766 0.217861
0.465581 -0.114803 0.259601
0.790834 0.170545 -0.034741
0.117949 0.731605 -0.302520
0.104024 -0.930977 -0.075044
-0.325545 -0.227711 0.201575
-0.586583 0.367042 -0.102126
0.256965 0.667312 -0.137118
-0.509077 -0.089648 0.342821
-0.277887 0.305188 0.091703
-0.659009 -0.156725 -0.115929
-0.459908 0.396758 -0.251390
-0.239229 -0.409539 -0.126924
0.378059 -0.439527 0.142153
-0.928132 -0.105740 0.081678
-0.449936 0.529387 -0.221591
-0.135368 -0.140018 -0.193873
-0.681725 -0.087297 0.225236
0.069298 -0.358032 -0.180907
0.023467 0.771837 0.169258
-0.824220 -0.240283 -0.071482
-0.553094 -0.185250 0.225829
-0.510481 0.414293 -0.247566
0.674330 -0.250642 0.018020
0.292350 -0.431009 -0.198618
-0.219891 -0.742004 -0.063674
0.328125 -0.088230 0.081331
-0.503062 0.464606 -0.253427
0.938775 0.105791 -0.113825
-0.592125 -0.036547 0.247587
0.541588 0.391776 -0.259028
-0.315707 0.466784 -0.285509
0.894247 0.130243 -0.154458
-0.107880 -0.573426 -0.113967
-0.547560 -0.135962 0.215506
-0.111266 -0.066528 0.235679
-0.453520 -0.105810 -0.155096
-0.217673 0.634682 -0.331971
-0.152234 0.226031 0.089085
-0.117837 -0.745711 0.196948
0.196967 0.347562 0.143621
-0.498276 -0.077004 0.407311
0.213217 0.686177 -0.193549
-0.703271 -0.311214 0.024441
-0.093121 -0.781228 0.149266
-0.037666 0.596494 0.211895
-0.200362 -0.228180 0.394616
-0.465081 0.508813 -0.272326
-0.049727 0.713116 0.191060
0.353352 -0.603390 0.177373
-0.574350 -0.118503 0.219821
-0.046320 -0.866445 0.001488
-0.235589 0.090433 -0.224147
-0.474459 0.137138 0.152254
-0.079367 -0.774760 0.206693
0.476384 -0.148012 0.182159
0.223221 0.092189 0.061402
0.362400 -0.174333 0.303906
-0.029273 0.618638 0.206415
0.206437 -0.103917 -0.249625
0.694417 -0.059425 -0.327856
0.033615 0.425746 0.023939
-0.473176 -0.393794 -0.096590
-0.317320 -0.589161 0.165362
0.327829 0.254790 0.196106
-0.239060 0.121465 0.121698
-0.612434 0.155109 0.168464
0.337908 0.011729 0.060601
0.784753 0.081913 -0.016730
-0.387746 0.108209 -0.205876
0.065155 0.432932 0.064908
-0.421416 -0.093022 0.271706
-0.113746 -0.260192 0.388449
-0.352528 -0.084982 0.275796
0.440618 -0.085264 0.064706
0.269738 0.373095 0.211244
-0.374864 -0.555720 -0.079298
-0.945414 -0.069120 0.152739
-0.166720 0.323246 -0.279004
-0.057376 -0.725035 0.259504
0.668873 0.332986 -0.107331
0.126466 -0.728461 0.233936
0.011614 -0.352115 -0.173822
-0.120401 -0.241871 0.338351
-0.629977 -0.019723 0.204783
0.137254 0.340196 -0.325654
-0.473069 0.124532 0.348537
0.299317 0.634539 -0.128926
0.657431 -0.276814 -0.253928
-0.410013 -0.019250 0.384118
0.301146 0.517168 -0.031915
-0.337337 0.626733 0.037992
0.942001 0.108374 -0.096946
-0.428252 -0.079448 -0.163800
-0.274738 0.182084 0.115064
-0.370788 0.422414 0.082284
0.426891 -0.083383 0.256859
-0.054327 0.263101 0.067945
0.350095 0.414514 -0.370396
0.079997 0.129850 0.192780
-0.468201 0.498469 0.081472
0.378925 -0.486211 0.151059
0.088626 -0.001467 0.182546
-0.685872 -0.338251 -0.015636
0.070269 0.052548 0.092900
-0.223470 0.547681 -0.314317
-0.126562 -0.653811 -0.095753
-0.214595 0.275385 0.088437
0.406142 0.416266 0.183432
-0.524041 -0.072838 0.410753
0.525825 0.055289 -0.325989
0.377251 -0.391991 0.156831
0.702331 -0.185383 -0.304622
-0.265301 -0.115528 0.171281
-0.150691 0.571805 -0.329367
-0.303523 0.154042 -0.226758
0.121886 0.722197 -0.322121
-0.256658 0.763982 -0.156769
0.379100 0.249712 0.013687
0.037175 0.363715 -0.315923
-0.419765 0.428539 -0.263265
0.062416 0.183960 -0.284757
0.071594 -0.278261 -0.196664
0.456859 0.271265 -0.357922
0.790272 -0.112779 -0.077799
0.633246 -0.088551 -0.313494
0.207387 0.311097 -0.330032
0.042032 -0.243216 -0.199225
-0.062965 -0.279903 0.385016
0.397439 0.220153 -0.339559
-0.718274 -0.316388 -0.032180
-0.350164 -0.558995 -0.082189
-0.920232 -0.080776 0.182670
0.523660 -0.203196 0.131769
-0.256832 -0.070687 0.299009
0.296710 0.068477 0.055503
-0.299801 0.562811 0.045000
0.333827 -0.663346 -0.068392
0.671504 -0.255598 -0.054678
0.548120 0.120022 0.009662
0.253373 -0.387243 -0.201522
0.421105 0.540708 -0.104056
-0.630454 -0.117753 0.223811
0.052224 0.147755 0.166076
0.117817 0.787852 -0.122856
0.323450 -0.392896 0.351737
0.544640 -0.244875 0.080736
0.071273 -0.763529 0.248594
-0.355739 0.401619 0.084159
-0.344851 -0.078022 0.310261
0.078410 0.832779 -0.084283
-0.079101 -0.073653 0.176561
0.727439 -0.021204 0.011392
-0.120598 -0.239086 0.346738
0.263383 0.518484 -0.378134
-0.017447 -0.622829 0.272558
0.482933 -0.401314 -0.231554
-0.388406 -0.101977 0.201825
0.931241 0.129622 -0.057669
-0.334072 0.293809 -0.249432
0.191743 0.511010 -0.366467
0.255969 0.500263 0.188612
-0.153001 0.632468 0.121045
0.080423 0.713629 0.172390
-0.168846 -0.223592 0.267502
0.056177 0.702111 0.023871
0.007153 0.438255 0.025295
-0.090591 -0.293317 -0.170612
-0.336904 -0.020002 0.373832
-0.739648 0.027467 0.211303
-0.068298 0.642163 0.207433
-0.207037 0.200206 -0.249453
-0.222597 0.041179 0.345689
0.393222 0.056107 0.044125
0.392869 -0.503184 0.152353
-0.630889 -0.301142 0.249939
-0.641986 0.016020 0.199583
-0.789473 -0.227830 0.061148
0.196533 0.716996 -0.139457
0.532390 0.083246 -0.332333
0.653135 0.316719 -0.201415
-0.473427 -0.308970 -0.112961
0.105176 0.658850 -0.031358
-0.295468 0.449763 -0.285105
-0.251360 -0.518618 0.247257
-0.259387 0.299488 -0.261187
-0.599703 -0.003602 -0.154007
0.211899 0.436255 0.207280
-0.640504 0.056717 0.191500
-0.011066 0.151533 0.224950
0.197898 0.362272 0.193187
0.404070 0.495342 -0.042379
-0.056220 -0.310827 0.179224
0.436715 -0.124362 0.151934
0.085339 0.833411 -0.063759
-0.507578 -0.472232 -0.076510
0.405135 0.487502 -0.316983
-0.280028 0.460813 -0.289445
-0.549219 0.409236 -0.238166
-0.119862 -0.115446 0.150514
-0.076779 -0.148044 0.150672
-0.010758 0.157108 0.256036
0.403140 0.278085 -0.000224
0.896687 0.010759 -0.306837
-0.030542 -0.075565 0.136928
0.237313 0.104186 0.057071
-0.283154 0.652275 0.025321
0.026524 0.796327 -0.339485
-0.365504 0.597175 0.047728
-0.225100 0.176713 -0.242332
0.016899 -0.651483 0.272554
0.656853 0.333502 -0.137772
-0.697184 0.172057 -0.174075
0.496517 -0.442898 0.125904
-0.054621 0.891501 -0.251537
-0.232592 -0.319591 0.416895
-0.021148 -0.578739 0.403786
0.492172 -0.251527 0.241243
0.004106 0.819331 -0.325718
-0.358904 -0.086031 0.273706
0.714906 -0.203451 -0.065200
0.203454 -0.298014 0.350507
0.111787 0.385463 0.037492
0.471817 0.026410 -0.312697
-0.586000 0.088518 0.213751
0.146571 0.374420 0.095024
0.244856 -0.321654 0.349172
-0.596160 -0.062766 -0.143070
0.883051 0.163699 -0.077275
0.453849 0.380890 0.057589
0.687025 0.164656 -0.018790
0.275383 0.469442 -0.370360
-0.444312 -0.478831 -0.084261
0.633617 0.079976 -0.346144
0.854671 0.105812 -0.031328
0.243455 -0.022594 0.080716
0.534015 0.230449 -0.009684
-0.724479 -0.261767 0.126070
-0.031581 0.192173 0.078419
-0.561745 -0.378753 0.186159
-0.029773 -0.074250 -0.221661
-0.225755 0.299343 -0.265958
-0.345341 -0.379951 0.233845
-0.004314 0.497612 0.086434
0.690688 -0.105395 -0.318432
-0.120104 0.770962 -0.372252
-0.060103 0.893710 -0.259108
-0.276638 0.163712 0.118888
-0.221306 0.709149 0.005496
-0.894685 -0.166447 -0.023311
0.396102 0.484263 -0.351470
0.221794 -0.194439 0.117045
-0.725136 -0.116294 0.237039
0.807187 0.146178 -0.032361
-0.074429 0.873045 -0.047161
-0.310151 -0.174144 -0.162335
-0.053845 -0.574157 -0.121535
0.208752 0.478007 0.199654
-0.160136 -0.460574 0.410876
0.612109 -0.129637 -0.302532
-0.915224 -0.063766 0.250482
0.071751 -0.044486 0.250360
0.404620 -0.109032 0.115302
-0.537369 -0.096999 0.318430
0.595829 -0.335192 -0.260451
0.563590 -0.000481 -0.320590
0.519689 0.391060 -0.319786
-0.020176 -0.162825 -0.205898
0.769658 -0.103514 0.021289
-0.479190 -0.233655 0.224647
0.303408 0.253961 0.128250
0.557933 0.336742 -0.033656
-0.775382 0.139474 0.194738
-0.403799 -0.551726 0.054275
0.685800 0.214989 -0.028351
-0.058596 -0.561211 0.227991
-0.874484 0.019292 -0.118884
-0.229194 -0.694880 -0.073166
-0.573591 -0.442627 -0.072818
-0.401530 0.101284 0.175540
0.318401 0.019630 -0.289496
0.635390 -0.061271 0.032276
0.248476 -0.613210 0.194236
0.120975 -0.847418 -0.093625
0.897167 0.013679 -0.196662
-0.350071 0.126939 0.347290
-0.102942 0.339525 0.060100
0.316109 0.479412 0.005141
-0.071145 -0.329606 0.184985
-0.440336 -0.559441 -0.067972
-0.162708 -0.068278 0.256483
-0.203992 0.078323 -0.226314
-0.207166 -0.692192 0.129723
-0.514626 0.011623 -0.169091
0.466005 -0.477863 0.137020
-0.682896 0.060983 0.196723
0.677672 0.289535 -0.222902
-0.305900 -0.464313 0.244535
0.513632 -0.024443 0.042525
-0.107321 0.064426 -0.237419
0.486705 0.055696 -0.320486
-0.394611 0.426657 0.084862
0.008245 -0.163044 -0.209911
-0.291178 -0.661503 0.003633
-0.589994 0.056464 0.307079
-0.450709 0.519391 -0.276422
-0.105006 0.708527 0.199834
0.162714 0.511904 0.199666
-0.062730 -0.286638 0.349056
-0.336533 0.521726 -0.293165
0.678793 -0.077847 -0.322063
-0.016507 -0.259611 0.163651
0.026953 0.760811 0.133711
0.551204 -0.404690 -0.239705
-0.181035 0.646246 0.087172
-0.061776 -0.580303 -0.119214
-0.847022 0.053702 -0.058944
-0.336247 -0.476856 0.251291
0.140892 0.519242 -0.360803
0.369675 -0.425477 -0.210721
-0.088302 -0.635944 0.246685
-0.536197 0.023666 0.393821
-0.360892 -0.589559 -0.074746
0.281021 -0.552472 -0.173508
-0.325245 0.678003 -0.308279
0.672295 -0.253969 -0.022976
-0.804965 -0.210197 -0.084761
-0.004143 -0.588347 0.418440
0.036191 -0.734769 0.248037
-0.542376 -0.286015 -0.107563
-0.086956 -0.552013 -0.121094
0.186742 0.591694 0.019089
-0.310210 0.256742 -0.245668
-0.589949 -0.104438 0.227810
-0.201606 0.567497 -0.321269
-0.139052 0.616967 -0.339763
0.474213 0.389384 0.139148
-0.587498 -0.037693 -0.149155
0.015083 0.853420 -0.187305
-0.003830 -0.864520 0.121101
-0.335941 0.598267 0.043299
0.013534 0.868590 -0.058850
0.190273 -0.614581 0.299164
-0.067860 0.879478 -0.325368
-0.192990 0.636027 -0.335753
-0.498691 -0.475707 0.044208
-0.354861 0.437149 0.077162
-0.147273 0.089053 0.325683
-0.391424 -0.563547 0.049481
-0.655955 -0.160989 0.235813
-0.677427 0.075065 -0.158133
0.561527 0.340630 -0.369483
0.059373 -0.646773 -0.123644
-0.131111 0.332709 -0.285915
0.281725 0.515817 -0.380235
0.079102 0.420638 0.062802
-0.525992 -0.112361 0.225486
0.176911 -0.586247 -0.152121
-0.032819 -0.581117 0.365012
-0.626449 -0.003335 -0.150243
-0.108864 0.116885 0.314819
-0.866032 -0.205811 -0.072791
-0.800526 -0.086771 0.242085
0.187804 0.597942 0.041924
-0.405818 -0.074295 0.367464
-0.390568 -0.070526 0.379526
0.567087 -0.378362 0.097336
0.037760 0.369266 0.034272
-0.495483 0.470634 0.090749
0.524146 -0.358007 -0.245810
-0.042344 -0.790444 0.255347
0.591546 0.162556 -0.004761
-0.083482 0.769258 -0.377147
0.051352 0.060166 -0.259234
-0.052822 -0.786668 0.239453
0.420550 0.420382 0.095073
-0.162183 -0.498576 -0.120696
0.118360 -0.041609 -0.249110
0.058100 -0.509011 -0.150108
0.543687 0.401201 -0.223257
0.244196 -0.547668 0.386086
-0.019332 -0.877667 0.037632
0.415230 0.532455 -0.051149
-0.558446 -0.384208 0.177506
-0.245304 0.064860 -0.217815
-0.724123 -0.263971 0.119965
-0.137250 -0.139405 -0.193724
-0.506086 -0.419304 0.204985
0.638961 0.321172 -0.042205
0.049349 0.279525 0.049976
0.070342 -0.034320 -0.243668
-0.219983 -0.696373 0.082122
-0.107710 0.906719 -0.344582
-0.387070 -0.175982 0.200348
0.063266 0.816628 -0.176410
0.731370 -0.181793 0.019057
0.196034 0.330401 0.086205
0.313662 0.554857 -0.345650
0.491109 0.444530 -0.224965
-0.112650 0.830696 -0.033516
-0.376316 -0.385734 0.239384
-0.030077 0.161556 0.294937
-0.287543 0.422308 0.070427
0.273554 0.227241 0.028099
0.436177 -0.028211 0.054305
0.110623 0.694919 0.146222
-0.074356 -0.011562 -0.227424
-0.041403 0.219001 0.074631
-0.080329 0.841410 -0.391553
0.227713 -0.554382 -0.165533
0.119831 0.196923 0.055896
-0.083194 -0.760345 -0.081335
0.236674 0.552564 -0.029562
0.143873 0.112348 -0.282528
0.735259 0.288476 -0.072532
-0.136699 0.907336 -0.222391
0.190865 -0.236150 -0.221827
-0.056971 0.129322 0.127687
-0.573616 0.112888 -0.180261
-0.126725 0.210814 0.088389
-0.058537 0.523541 -0.333180
-0.494852 0.348909 -0.237150
-0.121577 0.599246 0.098621
-0.105179 0.946436 -0.172179
-0.186568 -0.747582 0.007446
-0.268761 0.685305 0.016879
0.565851 0.407292 -0.144582
-0.506076 -0.104882 0.255580
0.166995 0.394513 0.213866
-0.233802 -0.507378 0.242578
-0.587926 0.367244 -0.016372
-0.151319 -0.062496 0.282137
0.042093 0.747420 0.131277
-0.168378 0.494191 0.039521
0.243573 0.195276 0.038559
-0.141619 -0.385144 -0.145570
0.188744 -0.618397 0.206478
0.522413 0.286562 -0.370234
-0.549740 0.115856 0.345516
-0.531647 0.114887 -0.186636
-0.112381 0.051602 -0.234216
0.073990 0.129637 0.154603
-0.179584 -0.204690 0.387108
0.159758 -0.652789 0.233950
0.756575 -0.155905 -0.193831
0.680376 -0.245297 -0.073722
-0.533096 0.156783 0.156820
-0.445982 0.452026 0.087285
-0.302384 -0.638837 0.046255
0.089638 0.055277 0.217021
-0.049583 0.773756 -0.382854
0.026836 -0.600787 0.434268
0.711077 -0.209417 -0.128500
-0.621140 0.128046 -0.176412
0.147711 -0.395134 -0.184919
-0.266697 0.328019 0.085690
0.264092 0.508007 0.185955
-0.430779 -0.336323 -0.113755
-0.306394 0.246901 -0.244309
0.160533 -0.418734 -0.182184
0.406970 0.402635 0.002017
0.058643 0.709887 0.055342
0.307890 0.240774 0.098013
-0.183281 -0.097833 0.156156
0.331262 -0.249072 -0.239360
0.466041 -0.080633 0.060184
-0.028282 0.518858 0.090439
-0.233765 0.267904 0.092619
-0.895198 -0.049270 0.248340
0.469274 0.456227 -0.245829
-0.688993 -0.350062 -0.061771
-0.687746 0.106828 0.188548
0.937150 0.061363 -0.223105
-0.285164 -0.493078 -0.104212
0.199541 -0.201789 0.121642
-0.083668 -0.759933 0.242661
-0.921835 -0.112752 -0.086934
0.496805 0.332915 -0.024194
-0.449215 -0.469786 0.195263
-0.140927 0.132583 0.195964
-0.074546 0.954790 -0.102182
0.468542 0.455059 -0.043786
-0.559834 0.122205 -0.184029
-0.326806 0.522006 -0.294607
0.287074 0.601115 -0.268590
-0.084682 0.225164 0.079614
0.072980 0.683348 0.008682
0.097369 -0.429042 0.390986
-0.402109 -0.576433 -0.071404
0.359862 0.220204 0.017146
-0.179666 0.023197 0.343042
0.444080 -0.136199 0.133713
-0.685674 0.028403 0.203421
-0.779184 -0.272739 -0.055109
0.853032 -0.019529 -0.358204
-0.468316 -0.521226 -0.020373
0.343602 -0.110195 0.294183
0.152479 -0.478243 0.392639
-0.136660 0.139966 0.234834
-0.311323 -0.378658 0.269373
0.500676 0.347245 -0.378870
0.206030 -0.269988 -0.217446
-0.062662 -0.065922 0.210141
0.253122 0.106396 -0.296964
-0.098718 0.412518 0.045379
0.575184 0.230910 -0.015647
0.151994 0.027882 0.084003
-0.644624 0.101916 -0.168007
-0.142598 0.731795 -0.010114
0.028381 -0.394428 -0.168030
-0.317633 0.444409 0.070446
-0.927363 -0.092018 0.127648
-0.566347 -0.221115 -0.116696
-0.190182 -0.121168 0.161654
-0.504430 -0.503317 -0.059482
0.802985 -0.101611 -0.274103
-0.843063 0.062607 0.135257
-0.842132 -0.210987 -0.025544
0.157357 -0.074629 -0.248287
0.161776 0.638746 0.175267
0.380171 -0.079014 -0.279230
0.094699 0.753462 -0.294647
0.116044 0.760544 -0.214988
0.874820 0.042246 -0.373261
0.080852 0.449090 0.158534
0.807420 0.173139 -0.249000
0.796017 0.133377 -0.379644
-0.274661 -0.557090 -0.093330
0.430944 0.242730 0.002647
-0.095650 -0.298907 -0.168809
-0.319195 0.173018 0.123161
0.096295 -0.543618 0.413300
0.260354 0.096936 0.055186
-0.287880 0.523740 -0.300496
0.466722 -0.181807 -0.271697
-0.107915 0.726521 0.196769
0.093309 -0.095261 -0.235158
0.428936 0.490362 -0.244285
0.416534 -0.180569 -0.264776
0.683143 -0.213107 0.054830
0.112814 0.508984 -0.354813
0.109899 -0.289206 -0.200013
0.645156 0.308161 -0.250108
0.736848 -0.179539 -0.185832
0.042311 -0.035791 -0.239384
-0.363324 0.234750 -0.233836
-0.615363 0.322409 0.136523
-0.556847 0.183447 0.155052
0.413861 0.488494 -0.290511
-0.594813 -0.077198 0.210882
0.265892 0.172868 -0.311643
0.062990 0.130329 0.085221
0.475314 -0.270638 0.299188
0.624430 0.163391 -0.360967
0.309664 0.585964 -0.256764
-0.216988 -0.568042 0.251912
0.866814 0.116065 -0.273082
0.764276 0.213952 -0.233573
0.054020 -0.598318 -0.132252
0.273017 0.615706 -0.259426
0.276453 0.484513 -0.373428
0.387798 -0.211125 -0.254766
0.875739 0.147255 -0.149428
-0.250522 0.770911 -0.179122
0.543091 0.364956 -0.340850
0.602396 0.398076 -0.076504
0.524076 0.381352 -0.339144
-0.404427 -0.237227 0.214670
-0.138060 0.906873 -0.166915
-0.164380 0.876773 -0.088855
-0.565495 -0.046820 0.411296
-0.217490 -0.252200 0.191978
0.507863 0.263140 -0.012276
-0.371603 -0.526190 0.221966
0.105771 0.681656 -0.035854
0.477264 0.417336 -0.348965
0.072034 0.829451 -0.059626
0.833846 -0.063731 -0.243905
-0.862306 -0.131227 0.175863
0.598627 -0.347778 -0.254359
-0.395058 -0.178219 0.201920
-0.686160 0.246693 -0.111254
-0.538776 -0.401507 0.174661
-0.201196 -0.654643 0.265843
-0.016996 0.229373 -0.282210
0.127040 0.434585 -0.342453
0.183510 0.437961 -0.351163
-0.029534 -0.810966 -0.079200
0.542702 0.328734 -0.381286
-0.000024 -0.153894 -0.210501
0.420929 -0.364111 0.121450
-0.026987 -0.541207 -0.131740
0.165972 0.598947 0.182366
0.618598 0.242322 -0.024049
-0.180247 0.030922 0.341631
0.613882 0.372223 -0.128579
-0.374743 0.593782 0.049703
0.217107 -0.400623 0.368405
-0.759135 -0.074241 0.233756
0.241612 -0.429665 -0.191638
-0.227287 -0.444703 -0.121827
0.464080 0.482058 -0.177024
-0.278241 -0.449613 -0.113607
0.140504 -0.674316 0.314195
0.702994 0.249180 -0.037417
-0.258626 -0.645752 -0.078469
0.000675 0.613348 0.203165
-0.170815 0.867366 -0.166133
0.363114 0.308250 -0.351701
-0.246998 -0.614133 -0.086244
-0.143155 0.131027 0.316976
0.207563 0.566358 0.182735
-0.212918 0.206033 -0.249741
0.239066 -0.151938 0.106360
0.450397 -0.034417 0.053477
0.009099 0.581815 0.208062
0.247059 0.517821 -0.375677
-0.163343 0.669395 0.171903
-0.489719 -0.505121 -0.025974
-0.749109 0.169634 -0.163144
0.123983 -0.110115 -0.236662
-0.123372 -0.347288 -0.155495
-0.003461 0.370465 0.039922
-0.713446 0.130882 0.187562
-0.000997 0.776008 0.107720
0.074155 0.249115 0.052319
-0.050185 -0.636011 -0.110093
0.180835 0.731522 -0.134881
-0.121687 -0.756262 0.152899
0.183363 0.268878 0.032914
0.310833 0.503649 0.068626
-0.079296 0.854786 -0.042935
0.408293 -0.373410 0.125051
-0.385694 0.447048 0.079646
