0.356824 0.690866 -0.044625
-0.154585 -0.141121 -0.201140
-0.040511 0.435405 0.280900
0.036433 0.363049 0.241751
0.641506 -0.446350 0.061252
0.687121 -0.534621 -0.052326
0.539746 0.372859 0.159572
-0.671134 0.007584 0.184051
-0.167286 -0.292736 -0.184494
-0.360802 -0.491178 -0.137335
-0.605451 0.380625 -0.187486
0.655764 0.661216 -0.094086
0.123973 -0.125985 -0.242574
-0.445750 0.159585 0.157952
0.560342 -0.684036 -0.250599
-0.298926 -0.106473 0.352442
-0.065694 -0.504721 -0.178338
-0.151432 0.671285 -0.065884
0.558120 -0.260050 -0.291735
0.100048 -0.211316 0.155539
0.529870 0.562298 -0.014939
-0.532856 0.345500 -0.194464
-0.668923 -0.253544 0.161304
-0.699460 0.537533 0.066372
0.487396 0.126344 0.235400
0.436043 0.683196 -0.156848
-0.549877 0.327941 0.156426
-0.258151 0.579919 -0.256786
-0.475959 0.524848 0.126571
-0.307337 0.180826 0.136023
0.316633 0.670795 -0.245897
-0.517919 0.025145 0.290358
-0.376062 -0.109596 -0.172456
-0.595877 -0.712689 -0.016261
0.558668 0.151505 -0.332054
0.129202 -0.572733 0.147090
0.644779 0.154080 -0.243271
0.651376 0.084683 0.007915
0.152048 0.123400 0.075748
0.318629 -0.133982 -0.269711
0.551946 0.199139 0.074521
-0.309171 -0.569517 0.209651
-0.685303 0.469093 -0.184683
0.399232 0.567588 0.090829
-0.330122 0.403065 0.117561
-0.595491 -0.553045 -0.097625
-0.165921 0.321976 -0.244794
0.356619 0.253768 0.033659
-0.303856 0.598227 -0.252020
0.047660 0.126894 0.090379
-0.170336 0.675434 -0.014125
0.627613 0.342429 -0.333890
-0.423489 0.298840 0.141144
0.669355 -0.408038 -0.156041
0.178987 -0.188951 0.310464
-0.417531 0.496132 0.120999
0.557807 0.423161 -0.011760
-0.233328 0.190627 -0.222283
-0.243547 0.056970 -0.207749
-0.409297 0.139416 0.217899
0.161978 -0.363759 0.121956
-0.156513 0.133908 -0.227755
-0.266107 0.653922 -0.210167
-0.299146 0.658129 -0.152504
0.515869 0.229995 0.221182
-0.691184 0.008255 0.046344
-0.410432 -0.482050 0.423662
-0.379736 -0.350530 -0.148372
0.023458 -0.681237 0.091450
-0.307958 -0.476376 0.408410
0.095348 0.566624 0.193874
-0.313684 0.208418 -0.212497
-0.604286 0.125445 -0.162703
0.482477 0.668011 -0.337797
0.637346 0.577284 -0.038237
-0.192576 -0.276921 -0.182413
0.540672 -0.269117 0.058386
-0.407695 0.122030 0.364206
-0.214118 0.570577 -0.262188
0.180411 -0.685954 -0.017964
0.665959 0.137648 -0.100090
-0.688737 0.102413 0.076847
0.233876 -0.087638 -0.262087
-0.511525 0.665942 0.010964
-0.518481 -0.243249 0.247498
-0.227899 -0.114828 0.153537
-0.325649 0.140962 0.350586
0.332237 0.359256 0.090460
-0.427925 -0.707976 -0.028173
0.313684 0.671978 -0.232051
-0.433063 0.059724 0.373936
0.142965 -0.191902 -0.238853
-0.679155 0.648231 -0.117300
0.459429 0.591947 -0.014152
-0.546206 -0.673544 -0.092912
-0.506935 -0.282759 0.321114
0.307961 -0.694758 -0.213351
-0.240955 0.425643 -0.244168
-0.702581 0.662977 0.050336
-0.456213 0.143827 0.282940
0.162779 -0.270851 0.153047
0.175122 -0.169372 0.309104
-0.569611 0.672827 0.106829
0.391528 -0.668070 -0.227947
-0.191949 -0.699679 -0.026854
0.053591 -0.688223 0.004919
-0.405630 0.449584 0.123843
0.496430 0.539312 -0.361045
-0.039909 -0.705221 -0.143325
-0.629947 0.294146 0.171215
0.017301 0.124527 -0.251768
-0.251678 0.489422 0.097867
-0.205917 -0.387188 -0.169718
-0.437960 0.596896 0.114077
-0.507711 -0.224099 -0.142378
-0.153637 -0.169126 0.148194
0.262200 -0.353607 0.198969
-0.519071 -0.094956 0.264994
0.122165 -0.126222 -0.242291
0.569784 -0.423546 0.069310
0.296154 0.600278 -0.338281
0.662492 0.381233 -0.088525
0.041257 0.507199 0.262152
-0.176567 -0.699270 -0.028196
-0.021690 0.661619 -0.218473
-0.369167 -0.308618 0.400786
0.389723 0.577391 0.199999
-0.699688 0.661958 0.082879
0.392947 -0.099771 -0.283716
0.045406 -0.694127 -0.055640
-0.507556 -0.435691 0.294621
0.413624 -0.094514 -0.287196
0.001043 -0.493653 0.157739
0.058411 -0.685499 0.032476
-0.085669 -0.160640 -0.209116
0.644311 0.021122 -0.265812
-0.430780 0.664966 -0.029696
-0.146910 0.522606 0.079595
0.683043 -0.055782 -0.010778
0.075466 0.668416 -0.181497
-0.028218 0.663377 -0.197091
-0.110668 0.347861 0.133019
-0.066396 0.658296 -0.237594
-0.012916 -0.335388 -0.202465
0.000210 -0.235182 0.132587
0.602221 -0.613309 0.083212
0.205775 0.673181 -0.178804
0.655380 -0.213054 -0.223759
-0.365622 -0.388679 -0.146666
-0.526676 -0.462893 -0.116309
0.277521 0.306936 0.039806
0.320194 -0.514788 0.114030
0.672497 -0.514659 -0.149936
-0.094870 -0.382514 0.160630
-0.582035 0.151673 0.178273
0.647577 -0.027826 -0.250472
-0.654115 0.669537 0.102932
-0.542185 -0.154772 -0.144212
-0.665250 -0.522164 0.147518
-0.355800 0.394808 0.122052
0.429650 -0.470569 0.295288
-0.437022 -0.684381 0.229466
-0.504306 -0.643029 -0.101905
0.108039 -0.375225 0.130814
0.516821 0.432755 0.201220
0.652740 0.442600 -0.146632
-0.520063 -0.243414 0.236601
-0.505462 0.670098 0.053479
-0.076057 -0.418906 -0.185243
-0.394670 0.647373 -0.232741
0.320748 -0.666523 -0.217946
0.541421 0.502154 -0.017133
-0.511833 -0.629641 -0.102135
-0.237050 -0.411001 0.183808
0.233914 -0.472879 -0.224425
0.382524 0.230508 0.164040
-0.521706 -0.101801 0.245884
0.505704 0.169474 0.228557
-0.399742 -0.406871 0.414779
-0.129679 0.058550 0.122497
-0.713187 0.570677 -0.023164
0.519714 0.191223 0.224421
-0.339006 -0.496943 -0.139898
-0.525434 -0.581415 -0.104899
0.008829 -0.017268 0.318083
-0.185963 0.655865 -0.219148
0.011225 0.666571 -0.177405
0.572257 0.068585 0.195142
-0.201644 -0.262489 -0.182524
0.253536 -0.476935 -0.226843
0.145010 0.532836 0.244764
0.248779 -0.131438 0.294830
-0.514931 0.597640 -0.221688
0.066559 -0.177904 0.163875
-0.163859 -0.264568 0.158992
-0.589946 -0.212808 0.215046
0.597048 -0.664822 0.054205
0.156923 -0.235825 -0.236560
-0.598482 0.365036 0.159771
-0.110481 0.323766 -0.252921
-0.016023 0.195382 -0.253916
-0.171030 0.171988 0.117337
-0.187161 -0.157046 -0.194911
-0.011520 0.673861 -0.090356
-0.312059 -0.117217 0.260619
-0.342385 -0.292790 -0.159374
0.034561 -0.071371 -0.235089
0.560089 0.028760 0.105725
-0.563861 -0.700258 0.105736
0.649958 0.422941 -0.024955
0.439532 0.323232 0.014975
-0.063564 0.684768 0.051785
-0.185321 0.525587 0.084813
-0.313814 -0.093236 0.252038
0.228095 -0.473181 0.123172
-0.515227 0.665911 0.012008
0.621986 -0.143665 0.034457
-0.665038 -0.328311 -0.109623
0.299962 -0.232864 0.297406
0.085416 0.680097 -0.059356
0.647993 0.353866 -0.017920
-0.338883 -0.272156 0.392878
0.668702 -0.387652 0.051612
-0.599640 0.407611 0.155774
0.206187 0.570522 0.194497
0.631405 0.694072 -0.048804
0.365471 0.569894 0.128274
0.604940 0.211787 -0.344585
0.026671 0.340405 -0.274219
-0.352357 -0.092508 -0.177527
-0.477321 -0.700511 0.070707
-0.680067 0.580193 -0.196297
-0.520520 0.015422 0.271068
0.623984 0.288229 -0.008058
0.553479 -0.432764 -0.274183
0.492675 0.485607 -0.355256
-0.621836 -0.316618 -0.116963
-0.319416 0.221688 -0.212972
-0.625337 0.344417 -0.181094
0.116886 -0.232858 0.130955
-0.695625 0.091527 0.027924
0.482218 -0.428033 -0.264424
-0.317020 -0.355521 0.397893
-0.502814 -0.530482 -0.113123
0.632294 0.327740 -0.303847
0.050822 0.113410 0.126147
0.092941 -0.282349 -0.222834
0.440351 0.673867 -0.258971
0.342897 0.355966 0.051029
-0.071884 -0.282430 0.147547
0.502037 -0.498135 -0.260412
-0.262210 -0.140925 -0.185723
0.192439 0.361915 0.171296
0.487713 0.550602 0.193873
-0.094280 0.665788 -0.146454
0.021501 0.098938 0.170418
0.049989 0.159017 -0.259828
0.530836 0.238951 0.199649
-0.639680 0.466343 0.155774
0.591463 0.086220 -0.330375
-0.510138 -0.686273 0.236368
0.260210 0.662215 -0.317280
-0.034149 0.042244 0.136598
0.085229 -0.679332 0.088920
-0.431672 0.188012 0.153154
0.638131 0.111241 -0.295193
0.670139 -0.254666 -0.128367
-0.667972 -0.084447 0.192407
-0.244713 -0.612576 -0.142116
0.036648 -0.521159 0.155322
-0.610997 0.523086 0.146112
-0.130244 0.156177 -0.233700
-0.276068 0.099471 0.139493
0.264987 -0.201546 0.299360
0.198939 -0.581725 -0.208766
0.018444 -0.681560 -0.173116
0.382916 -0.377268 0.299627
-0.175968 -0.457140 0.179558
0.070970 0.537746 0.254903
0.506818 0.260558 -0.335280
-0.687321 -0.576430 -0.082167
-0.512709 -0.446905 0.257578
-0.126326 0.069977 0.120899
0.531979 -0.584377 0.090458
-0.283326 0.050906 0.145282
0.313124 -0.007094 0.065404
0.346805 0.130949 0.078612
0.272309 0.557826 0.033019
-0.107262 0.553894 0.132341
-0.338891 -0.052363 -0.183383
0.657212 0.483964 -0.109886
-0.466751 0.670787 0.046458
-0.519151 -0.222990 0.245835
0.328703 -0.160643 0.286222
-0.224316 -0.691100 0.077668
-0.537598 -0.020707 0.188754
0.664658 0.044587 -0.122558
-0.430884 -0.703673 0.019302
-0.378137 0.083645 -0.191052
0.113288 0.019102 -0.255227
-0.182554 0.554053 0.081633
-0.598004 -0.207011 0.215634
0.206949 0.362522 0.172421
0.637425 -0.446007 -0.284928
-0.380479 0.113896 -0.193674
-0.303711 -0.323767 0.287983
-0.112124 -0.265835 -0.195036
-0.709110 -0.142312 -0.098738
-0.190195 -0.448183 -0.166009
-0.278093 -0.315531 -0.166372
-0.412422 -0.545680 0.235182
0.054420 -0.098539 -0.235281
0.360005 0.165387 0.174335
-0.060939 -0.429278 0.160335
0.332105 -0.348015 0.304055
0.461831 -0.426907 0.109462
0.389689 0.221764 0.067147
-0.517389 0.132444 0.309593
-0.348508 -0.693880 0.094068
0.533960 0.433818 -0.356113
-0.513642 -0.194017 0.287907
-0.674124 -0.060396 0.153623
0.585876 0.466077 -0.366714
0.546731 -0.645194 -0.252444
-0.319284 0.184971 -0.209401
-0.328733 0.055057 0.151389
0.527382 -0.694612 -0.244837
-0.577112 0.106865 0.181949
0.285476 0.436595 -0.320745
0.223261 -0.696579 -0.148448
-0.237570 -0.114161 -0.191874
-0.200036 -0.039893 0.142214
-0.627493 0.668711 0.084084
-0.259461 -0.627430 -0.138549
0.174785 -0.597313 -0.203777
-0.232516 0.675246 0.007058
0.471865 0.231995 0.146703
0.409559 0.224760 0.092007
0.680777 -0.379233 -0.073356
-0.307061 -0.042389 0.365848
0.672550 -0.678369 -0.119956
-0.334728 -0.631776 -0.127328
-0.190353 0.136816 0.123547
-0.589983 -0.302399 -0.122922
-0.043609 -0.040609 0.309026
0.452676 0.454714 -0.346498
0.571085 -0.693959 -0.250061
-0.143407 -0.423682 0.171617
0.521040 0.444274 0.199489
-0.334762 -0.343548 0.399267
0.171387 0.535034 0.240766
0.546555 0.107782 0.024192
-0.659285 -0.567986 0.181857
0.277123 0.552695 -0.330898
-0.428498 0.215751 -0.196746
0.184117 0.350356 0.049852
-0.208254 0.273545 -0.233987
-0.668800 0.324687 0.173802
-0.099532 -0.162422 0.139779
0.497694 0.677207 -0.244389
0.123952 0.559831 0.110007
0.574593 -0.591472 -0.261693
0.510153 0.359440 0.026035
0.306423 -0.677448 0.026643
0.394594 -0.084486 0.061286
-0.309785 -0.072569 0.282733
-0.087993 0.017025 -0.226154
-0.606888 -0.600349 0.255368
-0.185719 0.679424 0.034614
-0.557554 -0.203629 -0.137230
-0.311925 -0.032785 -0.189165
-0.378766 0.602780 -0.241721
-0.488076 -0.261034 -0.141583
0.677363 0.125398 -0.023495
0.017985 0.456994 0.270399
-0.030466 0.664601 0.049010
0.078723 -0.579272 -0.191763
-0.293105 -0.387279 0.351648
-0.051736 -0.641872 0.179802
0.632194 0.375368 -0.297615
-0.726304 0.597432 -0.109424
0.091285 -0.091035 -0.241303
0.048072 0.032195 -0.247153
0.520853 -0.261357 0.060470
-0.412005 0.493837 -0.226302
0.420822 0.225302 0.093645
0.654786 0.264432 -0.158465
-0.729356 0.399754 -0.159123
-0.007583 0.200204 0.091134
-0.709452 0.650532 0.014112
-0.032703 -0.474995 0.160755
0.369334 0.125162 0.232608
-0.498273 -0.170310 0.396984
0.352208 0.033410 0.101572
-0.701555 -0.122765 -0.124483
0.235014 -0.367513 0.111847
-0.276765 -0.685717 0.155244
-0.680425 0.642003 -0.183931
-0.499293 -0.265173 0.376188
-0.419292 0.660120 -0.086204
-0.620441 -0.440516 0.241684
0.497309 0.693671 -0.066846
0.330745 0.209637 0.041686
-0.478662 -0.013654 -0.167121
0.343796 -0.684779 -0.219467
-0.316601 -0.299395 0.392345
-0.601437 0.662946 0.012245
-0.131541 -0.397376 0.167343
-0.159025 0.596801 -0.272654
0.131391 0.660313 -0.289689
0.345263 0.489425 -0.334486
0.426705 0.577966 0.192392
0.381412 0.027709 0.198698
-0.709093 0.643814 -0.153713
0.483484 0.617217 -0.020073
-0.286239 -0.493056 0.383467
-0.130323 -0.686052 0.096975
0.458681 -0.225596 0.065891
0.026529 -0.695976 -0.068517
-0.369337 0.151841 0.336866
0.673062 0.025547 -0.067563
0.571539 0.679849 -0.243489
-0.025374 0.050315 0.158326
-0.118305 0.477183 -0.266799
0.220782 -0.031624 -0.265685
-0.061890 -0.590731 0.176258
-0.036664 -0.697247 -0.058614
-0.690610 -0.515320 -0.025787
0.287965 -0.657258 -0.214150
0.507915 -0.056764 0.042321
-0.494976 0.085788 0.380268
-0.724952 0.433615 -0.175527
0.041072 -0.146086 -0.228718
-0.088190 0.671470 -0.087504
-0.008602 -0.058026 -0.230203
0.345418 0.364980 0.147215
0.277747 0.565453 0.113165
0.548124 -0.329070 0.063179
0.528192 0.309920 0.003560
-0.693171 0.651708 -0.074608
0.267322 0.347013 -0.309382
0.069781 0.556290 -0.301511
0.108211 0.225543 -0.274684
-0.171287 0.457978 0.089410
0.012478 0.656735 -0.283850
0.329995 0.331236 -0.316829
0.369360 -0.070318 0.063520
0.205614 -0.206430 0.308354
0.149680 -0.349139 -0.224442
-0.383672 -0.538969 0.296760
-0.507180 -0.513428 0.285913
0.511013 -0.311561 -0.279942
0.235522 -0.579192 0.132472
-0.323058 0.067973 0.211931
0.373264 0.399457 -0.329705
-0.179962 -0.031769 0.138540
-0.672564 -0.034007 0.168180
-0.371664 0.071247 -0.190769
0.212742 0.674468 -0.167536
0.660372 0.561615 -0.076888
-0.672826 0.114892 0.188010
0.199582 -0.033404 -0.262471
0.568879 -0.332519 0.060539
-0.166286 0.279160 -0.240555
0.564689 -0.571929 0.084549
-0.611037 -0.225090 0.219271
-0.274003 0.342459 -0.231294
-0.433409 0.129700 0.367144
0.659371 0.039925 -0.159569
0.171841 0.689283 0.007370
-0.424545 -0.340281 0.411825
0.307822 0.108881 -0.291908
0.254265 -0.027792 0.075870
0.078534 0.116777 0.086940
0.234109 0.359602 0.130819
0.448153 -0.648613 -0.237971
0.636891 0.266603 -0.281138
0.060642 0.133851 0.287915
0.568826 0.186542 -0.336937
-0.091262 -0.541871 -0.171039
0.408663 -0.659772 0.115517
-0.275248 0.207292 -0.217900
0.190512 -0.561718 -0.209513
0.591433 -0.161752 0.040608
0.355500 0.142106 0.139988
0.526085 0.272733 0.007498
0.654126 -0.344034 -0.251412
-0.137314 -0.191157 -0.198725
0.461308 -0.453021 0.087751
-0.444104 0.651245 -0.172563
0.244472 0.199109 -0.291643
-0.625491 0.563997 0.144191
-0.687652 0.182826 0.095983
-0.649239 -0.178518 -0.126535
0.595784 -0.424444 -0.281064
-0.505182 0.650680 0.118460
-0.690605 0.408140 0.108424
0.042383 -0.109581 -0.232475
-0.016830 -0.247366 -0.210510
0.051924 -0.340460 -0.211269
-0.360122 0.604506 0.102168
-0.141337 0.471571 0.095613
-0.075706 0.308250 -0.256391
-0.492432 0.033865 0.384980
-0.164148 0.460677 0.088123
0.645137 0.665648 -0.166482
0.046883 -0.160793 -0.228113
-0.294991 -0.249188 0.358750
-0.526380 -0.010330 0.227051
-0.661939 -0.700627 -0.073664
0.114308 0.353784 0.112848
0.154603 -0.170646 0.312171
0.102381 -0.429750 -0.209776
-0.688648 -0.596135 -0.024047
0.479222 0.179066 -0.323354
0.532657 0.665301 -0.031828
0.452710 0.029472 0.191077
-0.050474 0.463877 -0.275227
0.238751 0.180366 -0.288990
-0.663690 -0.296276 0.191057
-0.368295 -0.543983 0.236995
0.535125 0.654620 -0.031137
0.058990 -0.174511 0.147882
-0.647980 -0.018958 0.204416
-0.350483 0.627139 -0.248159
-0.423838 -0.693995 0.120951
-0.465869 -0.498532 -0.121546
0.571824 -0.679717 -0.096881
-0.038485 0.036306 0.162690
-0.304428 -0.456280 -0.148833
0.258408 -0.338397 0.249046
-0.259521 -0.533983 -0.147677
0.104528 0.683561 -0.029166
-0.697561 -0.319856 -0.045162
-0.567287 -0.176249 -0.138511
-0.419881 -0.490289 -0.128948
-0.642744 0.398647 -0.183899
0.643297 -0.195619 -0.304273
-0.139332 0.549313 0.094950
0.649413 -0.252145 -0.270450
0.272057 -0.491498 -0.228075
-0.107948 -0.204756 -0.201607
-0.582156 0.299297 -0.182876
-0.588253 -0.156973 -0.137389
-0.204662 0.236359 0.115866
0.055856 -0.526500 -0.193643
-0.169871 -0.698564 -0.023081
0.517304 -0.376457 0.257670
0.616542 -0.242672 -0.301814
-0.156661 -0.619726 -0.154046
-0.533295 -0.372195 0.222504
0.633811 0.459839 -0.274229
0.087263 -0.319683 0.128363
-0.353597 -0.606100 0.219600
0.023576 0.301427 -0.269964
-0.209084 0.172598 -0.223997
0.656343 0.135434 -0.166503
-0.049182 0.655650 -0.272525
-0.001486 -0.142677 -0.222947
-0.012896 -0.585990 -0.177965
-0.515992 0.076113 0.311008
0.614913 0.378242 -0.015558
-0.679210 -0.264053 0.089074
0.077250 -0.122474 0.318556
0.331561 -0.571759 -0.228762
-0.447464 -0.634240 0.235815
-0.571468 0.655830 -0.075623
-0.597345 -0.319621 0.226551
-0.502648 0.675716 0.112966
0.142611 0.658493 -0.313491
-0.210800 0.092076 0.130854
0.563427 -0.666169 0.052241
-0.307309 -0.286430 0.181705
-0.699470 0.086857 0.000817
-0.597148 0.037197 0.191634
-0.668060 -0.407201 0.144911
0.648949 -0.373547 -0.291278
-0.064106 0.589664 -0.285571
0.505653 0.578099 0.164352
0.541689 0.026591 0.126819
-0.041353 -0.032142 0.326735
0.604539 -0.156926 -0.308476
0.647701 -0.401497 0.055978
0.529424 0.546017 -0.366433
-0.307736 -0.009421 0.154682
0.067694 0.516220 -0.297294
-0.671431 0.025771 0.184652
-0.022695 0.049416 0.228485
-0.166406 0.586723 0.076122
0.519766 -0.684721 -0.131363
0.350898 0.370986 0.209884
-0.493893 -0.509729 0.377771
0.350059 0.516450 -0.337816
0.147060 0.564954 -0.313442
0.457906 -0.166818 0.060255
0.518332 -0.260026 -0.286031
-0.025473 -0.084558 0.193343
0.089828 -0.172795 -0.233099
0.346765 -0.683746 -0.056277
0.039090 -0.306920 0.134024
-0.547060 0.553432 0.133975
0.639617 -0.054033 -0.308990
0.399673 0.358774 -0.329515
-0.358446 -0.518330 -0.135018
0.077019 0.356758 0.158813
-0.509006 -0.153064 0.325722
0.024057 0.588432 -0.298095
-0.218063 0.348807 -0.239938
0.592166 0.630812 -0.383723
-0.688364 -0.417081 0.003922
-0.548724 -0.311846 0.218817
-0.046189 0.427739 -0.272308
-0.582755 -0.318224 -0.122411
-0.689568 -0.666145 -0.040543
-0.454196 0.047749 0.378138
0.358064 -0.266272 0.292339
0.646651 0.695066 -0.107561
0.052354 0.380649 -0.281838
-0.061810 -0.591460 -0.170415
0.699979 -0.598756 0.026725
0.263687 -0.184662 0.297896
0.514059 0.461283 0.198827
0.437676 -0.623626 0.107821
-0.702804 -0.186394 -0.061803
-0.111784 -0.532191 -0.169042
0.017222 0.506737 -0.289127
-0.590642 -0.376853 -0.115547
0.017252 -0.688666 -0.172250
0.363822 0.125556 -0.301570
-0.575020 0.434088 -0.197078
0.636423 0.176737 -0.297412
-0.248871 0.165639 -0.217610
0.336880 0.192235 -0.304225
-0.052751 0.204619 0.097181
-0.508169 0.141631 0.278683
-0.291280 0.139724 0.137739
-0.184229 -0.621034 0.196768
0.211293 0.107762 0.068779
-0.362943 0.677536 0.080424
0.138635 -0.695558 -0.105863
0.432554 0.018777 0.083368
0.670958 0.325156 -0.038488
0.037167 -0.287163 -0.214364
0.563543 0.038632 0.130901
0.658739 -0.663415 0.046330
-0.155463 0.288833 0.103679
0.223648 0.198295 0.058155
0.109201 -0.590827 -0.195005
0.100421 0.060298 0.098201
0.528302 0.262322 0.008198
-0.297019 -0.328732 0.392405
0.503218 -0.348216 -0.275240
0.155354 0.275454 0.060407
-0.134416 0.674080 -0.042125
0.672444 -0.325872 -0.122870
-0.515975 -0.212815 0.269142
-0.326004 0.058131 0.190252
0.222888 -0.173853 -0.252081
0.366179 0.372429 0.219730
0.565936 0.473256 -0.017824
-0.062734 -0.348154 0.152661
-0.452185 -0.544568 0.262004
0.072445 0.364006 0.238619
-0.244060 -0.595078 0.202812
0.613182 -0.039951 0.025579
-0.285919 0.214820 0.129627
-0.010315 0.028999 0.316305
0.471503 0.192672 0.231195
0.352645 -0.698353 -0.215863
-0.223617 -0.112283 -0.194059
0.644488 0.228752 -0.234421
-0.103371 -0.354460 0.159106
-0.223121 -0.424139 0.183095
-0.501157 -0.523120 0.325898
0.356626 0.524689 0.215208
0.378055 -0.477788 0.133186
-0.656345 -0.343361 0.234703
-0.458610 0.152459 0.160494
0.279635 0.653004 0.005666
-0.425887 -0.591437 -0.118197
0.153985 0.465462 0.250064
-0.577635 -0.696540 0.150941
0.643876 -0.133664 -0.291293
-0.093371 0.353220 0.184299
0.199068 0.236354 0.057960
0.449147 0.410337 0.213119
-0.682874 -0.656369 -0.074989
0.282486 -0.065342 0.075494
-0.682358 -0.718001 -0.041205
0.108360 0.562135 0.140646
-0.556225 -0.041793 -0.153245
0.088554 0.238075 0.073642
-0.473913 -0.533908 0.384975
-0.184398 -0.046188 -0.206146
0.507362 0.509935 -0.359741
-0.525032 -0.547180 -0.108304
0.047274 0.060522 0.304963
-0.696326 0.148702 0.031411
0.698989 -0.612134 0.017977
-0.007353 -0.055598 0.324152
-0.377474 -0.444510 0.415265
-0.645743 0.524042 0.151002
0.548260 0.170028 0.044958
0.017390 -0.694515 -0.049355
-0.337544 -0.557741 -0.134163
-0.160238 0.030746 -0.217134
-0.511760 -0.183200 -0.145796
-0.203243 0.144616 -0.222099
0.151013 -0.165873 -0.242552
-0.357229 -0.215007 -0.164851
-0.680386 0.218567 0.151115
0.602110 0.447372 -0.020481
-0.684447 -0.243476 0.056067
-0.446481 -0.439039 0.424628
0.641067 0.379766 -0.235995
-0.301394 -0.323446 -0.162256
-0.058529 -0.050573 -0.223771
-0.484827 0.072806 -0.174690
-0.135173 -0.391112 0.167251
0.652953 0.542398 -0.130674
0.422217 -0.346063 0.290939
0.184415 0.669906 -0.206118
0.569566 -0.255292 0.052890
0.112863 0.678277 -0.089204
0.401777 -0.280488 0.287459
-0.426977 -0.687564 0.191420
0.586367 -0.663428 0.073215
0.647803 0.386789 -0.188677
-0.221479 -0.263023 0.167106
-0.533804 -0.375120 0.222863
0.384758 -0.247301 0.286655
-0.096616 -0.345290 0.157240
0.282467 -0.405385 -0.237988
0.043146 0.607190 0.044065
-0.272861 -0.688424 0.124622
0.415995 0.689715 -0.079125
0.002324 -0.528608 0.160973
-0.127470 -0.555499 0.182219
0.665951 -0.146482 -0.141432
-0.296895 -0.344118 0.331868
-0.553653 -0.703616 0.065747
0.412208 -0.671856 0.047405
0.019918 0.349140 0.098044
-0.147220 0.110249 0.119958
0.319880 -0.409813 0.190379
-0.294710 -0.404528 0.338108
-0.443490 -0.706568 -0.007186
-0.361125 -0.613668 0.221420
0.029486 0.109942 0.121086
-0.122922 0.241139 0.103675
-0.221766 0.659666 -0.164831
0.367668 0.228202 0.144735
-0.316008 -0.091090 0.163853
0.280626 0.558563 0.037851
-0.086703 0.611531 0.062265
0.666892 0.149753 -0.091919
0.627404 0.417239 -0.324458
0.164517 0.360559 0.167115
0.332509 -0.101531 -0.274875
-0.152730 -0.265688 0.157506
-0.156627 -0.270618 0.158547
-0.304715 -0.386769 0.191144
0.264848 -0.682406 -0.011259
0.546123 0.396444 0.200568
0.116286 0.353406 0.108039
-0.482340 0.592804 -0.225890
-0.386483 0.675836 0.070890
-0.683083 0.654574 -0.047489
-0.311499 0.054676 0.289443
0.267614 0.369304 0.222850
-0.422732 -0.709117 -0.042405
0.375641 -0.203345 0.076749
-0.164114 0.429371 0.091179
-0.450445 -0.527362 -0.120940
0.167899 0.024225 0.291211
-0.449118 -0.614873 -0.112574
-0.183510 -0.687964 0.096229
0.483676 -0.206419 0.060431
-0.565845 -0.444769 0.234269
-0.169183 -0.330402 -0.180539
-0.018332 0.270598 0.085793
-0.681530 -0.429101 0.049146
0.518355 0.482117 -0.358598
-0.109403 -0.687110 0.077757
-0.137731 0.374570 -0.253980
0.539193 0.019595 0.052375
0.470255 -0.227471 -0.282318
0.237564 0.511538 -0.321201
-0.621726 0.262087 -0.173562
0.666508 0.242707 -0.009707
0.368627 -0.140062 0.070444
0.230869 0.122854 0.064496
-0.374633 -0.692766 0.115831
0.358057 0.160483 0.160235
-0.586923 0.660705 -0.017317
0.090388 0.364726 0.239679
-0.703630 0.147790 -0.018922
-0.691682 -0.642439 -0.051625
-0.598785 -0.015043 -0.149756
0.373042 -0.338443 0.297247
-0.038904 -0.322906 0.146774
-0.689156 -0.133944 -0.125168
-0.561633 0.293646 -0.185267
0.052789 0.666440 -0.194323
-0.503149 -0.433036 0.325295
-0.716396 0.159574 -0.104949
-0.037446 -0.433987 -0.189306
0.446937 -0.294979 0.282399
-0.362960 0.224841 0.139697
0.282931 0.666030 -0.284661
-0.348116 -0.373355 -0.150675
-0.134419 -0.682210 0.139900
0.256236 -0.342616 0.222131
-0.534000 -0.197566 0.205531
-0.114916 0.563708 0.240943
0.259352 0.573864 0.210661
-0.687241 -0.649135 -0.022075
0.084007 -0.326894 -0.217197
0.246357 0.569976 0.173627
0.122697 0.132229 -0.267638
0.264672 -0.542509 -0.222028
0.617552 0.096957 0.011566
-0.654221 -0.395779 0.241685
-0.375850 -0.534814 0.338616
-0.239175 -0.693749 0.054670
0.062828 -0.331842 -0.213676
0.373103 0.681565 -0.150925
-0.619502 0.648891 -0.132453
-0.660753 0.257265 -0.167493
0.439729 -0.631258 -0.238459
-0.383076 -0.541462 0.269676
0.680486 0.107206 -0.004673
0.118937 0.442041 -0.297391
0.209770 0.350839 0.045481
-0.559430 -0.233541 -0.134037
0.061433 0.302188 -0.275469
-0.222977 -0.561947 -0.150184
-0.474581 0.434763 0.135182
-0.136189 -0.618258 0.189606
0.515446 -0.582758 -0.254062
0.280321 -0.003193 -0.277005
0.070342 0.612969 0.039599
-0.064730 0.551033 0.085640
-0.314290 -0.196806 0.233722
-0.231187 -0.699065 -0.005590
-0.612404 -0.290973 0.225909
0.051778 -0.133721 -0.231462
-0.058202 -0.689079 0.037428
-0.553180 0.573559 -0.213848
-0.299423 -0.112284 0.348181
0.098152 0.023508 -0.253487
-0.444120 0.459092 -0.218298
-0.714680 0.362875 -0.063613
-0.652151 -0.664155 -0.078634
0.608717 -0.489542 -0.276554
-0.241306 -0.696008 0.031127
0.428151 0.573953 0.148610
0.136951 0.674614 -0.137672
0.433208 -0.457170 0.112900
0.510720 -0.061773 -0.304323
0.661322 -0.633123 -0.243957
0.670631 -0.222284 -0.120279
-0.401016 -0.484228 -0.132247
-0.262974 0.185927 0.129161
0.533844 0.170291 0.224441
0.103245 0.662963 -0.250624
-0.685654 -0.632306 -0.076943
0.280357 -0.324957 0.309222
0.552001 -0.612409 -0.256406
-0.490304 0.179199 0.162425
0.569138 0.047647 0.170665
0.465986 0.482760 -0.351149
-0.097411 0.664939 -0.154429
-0.164196 0.124712 0.120979
0.574160 0.109407 0.214159
0.428889 0.385921 -0.336360
0.615633 -0.272048 0.047921
0.678187 -0.098160 -0.050312
0.616109 0.125338 0.008998
0.289938 -0.692174 -0.125880
0.205639 0.123213 0.068080
-0.467417 -0.316562 -0.139117
0.487080 0.116542 -0.318368
-0.358573 0.136719 0.169907
0.257707 0.563891 0.225563
0.142896 -0.315350 0.119960
-0.319693 0.146796 0.263975
0.090818 0.560969 0.041747
-0.498219 -0.584453 -0.108505
-0.607598 0.647557 -0.151279
-0.721649 0.263092 -0.126012
0.006522 0.202116 -0.257808
-0.567366 -0.465564 0.236520
-0.552869 0.326756 0.156971
0.651495 -0.425947 -0.281393
0.673169 0.013553 -0.068571
-0.045714 0.463494 -0.275872
-0.369100 -0.625966 0.223766
-0.368578 0.485557 -0.231721
-0.722263 0.489278 -0.097368
-0.293737 -0.457945 0.337037
0.029207 0.106900 0.172998
0.523121 -0.184599 -0.294093
-0.017004 0.047532 0.315453
-0.357848 0.568251 -0.241345
0.189431 -0.534678 -0.212002
-0.688003 -0.024329 0.063472
-0.385894 0.510555 -0.231681
0.630371 0.308786 -0.319823
-0.271011 -0.217377 0.169747
0.163911 0.555398 -0.314925
-0.122888 0.557994 0.234968
-0.702486 -0.271610 -0.072002
0.283870 -0.062665 0.075033
-0.360894 0.652840 -0.186446
0.225234 0.123846 0.065207
0.592845 -0.623623 0.085565
0.370088 0.058973 0.228170
-0.156899 0.153211 0.117146
-0.506319 -0.140924 0.345957
-0.409186 0.285113 0.140434
-0.532164 0.043597 0.195135
-0.365416 -0.172519 -0.167831
-0.410053 0.295835 -0.207222
-0.062573 0.005759 -0.228699
0.679551 -0.576451 0.068516
-0.168074 -0.030817 -0.209990
0.542330 -0.479351 -0.268028
-0.293951 0.517021 -0.245501
0.441167 -0.668809 0.069432
0.103911 0.223985 0.072818
0.537789 -0.586361 -0.256914
0.078193 0.107957 0.087851
-0.659238 -0.545349 0.185469
0.499641 0.230747 -0.331336
0.196582 -0.267117 0.305698
0.406684 0.365797 0.133156
-0.517707 -0.103897 0.273068
-0.457409 -0.599234 -0.112914
-0.698127 0.213601 -0.157863
-0.635814 0.044433 -0.150260
-0.682259 0.077430 0.117737
0.425678 -0.367637 0.292552
0.077209 -0.597468 -0.189767
-0.035319 0.662451 -0.204425
0.202061 -0.564934 0.135877
-0.677352 -0.233322 -0.117144
-0.056057 -0.161054 0.133409
-0.591795 -0.027238 -0.149566
0.259862 0.018269 0.070563
0.130849 -0.281658 0.118393
-0.082887 -0.653504 -0.161325
-0.693906 -0.654605 -0.068677
-0.152888 0.654817 0.067525
-0.135356 -0.601029 0.187802
-0.545310 0.158345 -0.174379
-0.637898 -0.161439 0.216901
0.021600 -0.608586 0.166029
0.614999 -0.149647 -0.310688
0.551270 0.186692 0.220338
-0.241077 0.297351 -0.231606
0.659773 0.460303 -0.030016
-0.517280 0.120610 -0.174710
0.692778 -0.655804 -0.031060
0.566340 0.473822 -0.017937
0.282702 0.040366 0.065127
-0.388860 -0.330838 -0.148988
-0.604751 0.672997 0.121783
0.224371 0.665154 -0.272231
-0.144138 -0.383906 0.167832
0.559110 0.383583 -0.008077
-0.597415 -0.634779 0.257375
-0.338284 0.484227 -0.235936
0.439763 0.666729 -0.335668
0.387988 -0.674614 0.026735
-0.046030 0.287273 0.088136
-0.452395 0.244352 0.150617
-0.663302 -0.647008 -0.078711
0.260224 0.290024 0.043940
0.468252 0.218786 -0.325664
-0.033599 0.035160 0.281276
-0.685198 -0.426687 0.024287
0.047001 -0.688496 0.004440
0.160072 0.452960 0.250414
-0.529882 0.666998 0.029192
-0.374798 0.141429 0.226719
0.607463 -0.490454 0.070448
-0.642187 -0.081555 0.209705
-0.694561 0.075081 0.032840
0.117769 -0.522630 -0.202902
0.611944 0.270880 -0.004635
0.359555 -0.413559 0.306526
-0.686118 0.574617 0.151848
-0.467502 -0.108873 0.395360
-0.324157 0.189375 0.137600
-0.586472 -0.648299 0.257128
0.146660 0.360227 0.170200
0.388423 0.675270 -0.224477
-0.428947 0.025395 -0.178069
0.026371 0.662217 -0.229964
0.209446 -0.058605 -0.261421
-0.315224 -0.028809 0.251711
-0.046370 0.555934 0.131590
-0.347105 0.448825 -0.231209
0.348800 -0.379199 -0.250063
0.630366 -0.666765 0.020832
-0.624236 0.420374 -0.188678
-0.178439 0.637486 -0.273847
-0.600032 -0.709703 0.017466
0.449088 -0.149016 0.059779
-0.500535 -0.146294 0.384926
-0.192636 0.513076 0.087085
-0.263680 -0.691787 0.084953
0.512190 0.570120 0.188454
0.668059 -0.563233 -0.187497
0.178245 0.622637 -0.323555
0.159117 -0.251079 0.223263
0.261921 0.562675 0.089142
-0.299187 -0.022938 0.362788
-0.520379 0.056247 -0.167972
-0.667376 -0.587646 0.123388
-0.087824 0.608191 0.062752
-0.706472 0.653534 0.035031
0.490977 -0.084068 0.047420
-0.116598 0.653784 -0.267470
0.362055 0.222126 0.081357
0.007875 -0.292763 -0.209615
0.354395 0.038680 0.117364
-0.045985 -0.147646 -0.216079
0.341207 0.404223 -0.325573
0.348029 0.687322 -0.079533
0.069009 0.644773 -0.310052
-0.317192 -0.158508 0.219341
-0.681475 0.283695 -0.167105
0.547919 -0.481735 0.078135
0.324194 -0.674676 0.049877
0.158985 -0.141272 -0.246101
-0.144297 0.282344 -0.244020
-0.461708 -0.694789 0.126528
0.159900 0.356305 0.123001
0.156484 0.568741 0.193867
0.188363 0.446195 0.247017
0.511021 -0.317950 0.067414
-0.366157 -0.394940 -0.145977
0.107665 0.677039 -0.100613
0.622344 0.583187 -0.335120
0.005212 -0.697573 -0.077764
0.100207 0.351414 0.092581
0.339167 0.047704 0.056311
-0.314861 -0.539846 0.261621
-0.637779 0.481026 -0.192666
0.556271 -0.130380 0.042584
-0.024875 -0.699613 -0.088516
-0.668618 0.225325 0.183491
-0.629148 -0.702972 0.100867
-0.442220 -0.311373 0.411534
-0.302446 0.583834 0.095917
-0.397304 -0.255224 -0.155170
-0.515489 0.561818 0.128627
-0.082150 -0.300155 0.150752
0.249788 -0.479203 -0.226083
0.003601 0.447559 -0.281387
-0.384163 0.048842 -0.186785
-0.157981 -0.150559 0.147002
0.112087 0.349234 0.064653
-0.412667 0.441495 -0.221089
-0.354985 0.662956 -0.079648
0.423190 0.018893 -0.299656
0.366962 0.111653 0.214345
-0.113249 -0.528040 -0.169238
0.524194 0.240629 -0.335824
-0.334699 -0.542291 0.242690
-0.673890 0.387390 0.168401
-0.310596 -0.271072 0.248313
-0.170042 -0.263631 0.159788
0.535057 0.576989 0.141419
-0.688193 -0.003453 0.065201
0.397457 0.295466 -0.323007
0.062397 0.569211 0.234056
0.388792 0.563656 0.052352
0.140186 -0.686872 -0.012847
-0.536711 -0.279235 0.213905
-0.054245 0.669663 -0.119646
-0.005335 0.679700 -0.029753
0.612214 -0.164799 0.037925
0.033673 0.559869 0.144108
-0.100224 0.683976 0.051744
-0.039036 0.034103 0.193353
0.668279 -0.026684 -0.108027
0.221619 -0.212892 0.306690
0.686781 -0.233015 -0.010845
-0.315055 -0.125583 0.238807
-0.503986 -0.035664 0.377287
-0.665633 -0.643662 0.127230
-0.696998 -0.358429 -0.046894
0.365370 0.336009 0.024363
-0.101855 -0.677027 0.183591
-0.201018 -0.478673 0.185256
0.144602 -0.691193 -0.061053
-0.120432 -0.702828 -0.087486
0.171288 0.234354 0.062140
0.686897 -0.345563 -0.026399
0.690461 -0.538420 -0.029927
-0.023230 -0.101363 0.130150
-0.462787 -0.097997 -0.161151
0.424946 0.632719 -0.359925
-0.109441 -0.513538 0.175531
-0.315280 -0.192174 0.227588
-0.373856 0.678443 0.094273
0.592471 0.607612 -0.034766
-0.167072 0.481558 0.086500
0.183739 0.181081 -0.281170
-0.057597 -0.134431 0.131027
-0.611770 -0.702368 0.100884
0.326716 -0.118427 0.074340
0.551396 0.413747 0.101918
-0.736339 0.594617 -0.189636
-0.292957 -0.704706 -0.043321
0.676147 -0.389793 -0.106711
-0.063649 0.278007 -0.255164
-0.667175 -0.514359 0.135421
0.294208 -0.442099 0.110650
-0.632381 0.123959 -0.158528
0.480333 -0.636015 -0.243818
-0.463970 -0.203178 -0.150697
0.126654 -0.503518 -0.206045
0.641014 -0.091222 0.026600
0.656926 -0.291893 -0.224589
0.071817 -0.597563 0.157748
-0.055766 -0.697189 -0.050867
-0.597355 0.012973 -0.152700
0.137464 -0.399412 -0.217774
-0.327184 -0.700190 0.018120
0.299225 0.359787 0.108506
-0.707690 -0.258477 -0.105859
-0.706493 -0.082260 -0.127735
0.302438 0.686768 -0.068490
-0.400164 -0.705945 -0.016650
0.340234 0.233588 -0.308750
0.204719 0.568799 0.176488
0.114037 0.054451 -0.258791
0.069262 -0.352029 -0.212625
0.519385 0.336501 0.002224
-0.056497 0.253038 -0.253748
-0.332117 0.079890 0.357486
0.346704 0.200332 0.087996
-0.315785 -0.338419 -0.158728
0.400873 0.328640 -0.326741
-0.619727 -0.652201 -0.084453
-0.062136 -0.688977 0.040003
-0.147837 -0.593648 -0.157862
0.465725 -0.261509 -0.278341
-0.113834 0.557702 0.175826
0.435376 0.680318 -0.187608
-0.651334 -0.454344 -0.099266
0.055937 -0.674101 0.156213
-0.295979 -0.366029 0.334983
0.011791 0.553964 0.088655
0.662266 -0.600581 -0.232740
-0.091169 0.679627 0.001506
-0.309909 0.091110 -0.201568
0.231303 0.013046 0.075170
0.357820 0.379430 0.229240
0.368900 -0.683345 -0.060218
-0.595876 0.005883 -0.152219
0.240031 -0.319144 0.257567
-0.221964 -0.688894 0.100554
0.296393 0.132801 0.054125
0.322025 -0.688922 -0.102818
-0.697527 0.472239 0.070166
0.332880 -0.698390 -0.208882
0.345586 -0.435397 0.184252
-0.446195 -0.588939 0.231204
-0.262846 0.666543 -0.075392
-0.687622 0.065860 0.079198
0.301297 0.675721 -0.187091
-0.293160 -0.243255 0.372198
0.515311 -0.110395 0.046504
-0.148231 -0.344433 0.164560
-0.579822 -0.025390 -0.151464
-0.580384 0.664043 0.127939
0.139730 -0.080730 0.305513
0.643550 0.250845 -0.237661
0.455918 0.685329 -0.022779
0.494690 0.673733 -0.027207
0.688658 -0.438642 0.053736
0.236822 -0.281597 0.311227
-0.057001 0.014839 0.200589
0.383175 0.209557 0.242213
-0.160063 0.039995 -0.218063
0.031652 0.555725 0.100218
0.039459 -0.417837 0.144816
-0.497352 0.140144 0.258613
0.056773 -0.254075 -0.220411
0.389646 0.229112 0.146336
0.551372 -0.498572 -0.267446
0.126828 -0.422223 -0.214018
-0.647730 0.190301 0.183919
-0.715813 0.568423 -0.041537
-0.106098 0.609746 -0.281511
-0.521600 0.004263 0.262029
0.244319 -0.064439 0.080880
0.325487 0.460820 0.225919
-0.676251 0.595064 -0.198298
-0.042365 0.029921 0.206240
0.480933 -0.533420 0.092797
-0.547341 0.452642 0.143870
-0.086296 -0.436825 0.164710
0.329021 -0.669272 0.106311
-0.544267 0.000102 0.187676
-0.359641 -0.696230 0.072908
-0.161972 0.047701 -0.218543
-0.429525 -0.690469 -0.107992
0.455042 0.125296 0.240143
0.595464 -0.110210 0.034990
0.226416 0.395560 0.246510
-0.705298 0.212538 -0.156730
0.535566 -0.631559 0.094556
0.677168 -0.503898 -0.116269
-0.567742 0.662828 -0.001606
-0.485376 -0.081291 -0.159544
0.402017 0.233334 0.029146
0.010602 -0.669942 -0.173127
0.661352 -0.526174 -0.228213
0.296587 -0.694501 -0.153435
-0.519491 0.134576 0.295454
0.684082 -0.104284 -0.010686
-0.180947 -0.062795 -0.205017
0.630143 0.370518 -0.312415
0.511458 -0.507227 0.085858
-0.266707 0.471798 -0.244987
-0.638271 0.059490 0.195353
-0.298584 -0.237955 0.335689
-0.127690 0.671668 -0.070629
-0.585443 0.486515 -0.200709
0.272375 -0.684625 -0.037983
0.493179 -0.334708 -0.275121
-0.271915 -0.690739 0.099326
-0.555563 -0.629525 -0.095874
-0.522647 -0.148249 0.232670
0.185784 -0.596882 0.141335
-0.508940 0.642635 -0.226947
-0.708778 0.352140 -0.024611
0.620321 0.300987 -0.355513
0.398735 -0.267244 0.286600
0.477191 0.689394 -0.105420
-0.379080 0.181683 -0.200503
-0.506162 -0.519671 0.291999
-0.262398 -0.305638 -0.169591
0.323529 0.322693 -0.315066
-0.352455 -0.644786 -0.123513
-0.043745 0.421132 -0.272013
0.097645 0.570864 0.238709
0.174110 0.569123 0.191405
0.443223 0.670216 -0.299389
0.148314 0.689164 0.014871
0.111512 0.676187 -0.111222
0.261697 0.560147 0.061988
0.449427 0.636643 -0.363820
0.159471 0.128187 0.074215
-0.402944 0.140193 0.153709
-0.610905 -0.400098 -0.110368
-0.691012 0.054195 0.054202
-0.484941 0.445912 -0.211154
-0.006330 0.669348 0.045084
-0.372658 -0.707332 -0.041855
0.363137 0.043785 0.178196
-0.661616 -0.220112 0.216380
0.540146 0.611754 -0.374399
0.479969 -0.208491 -0.285567
-0.479936 -0.090027 0.395301
0.338561 -0.378036 0.306064
-0.314112 0.053996 0.271384
-0.659624 -0.551800 -0.088548
0.237682 0.492632 -0.319369
0.523085 0.234906 0.011627
0.426204 -0.674224 0.016668
0.021807 -0.445639 -0.196666
-0.284610 0.677917 0.055285
0.107313 -0.199084 0.237492
0.354889 -0.687595 -0.100783
-0.265775 0.549880 0.093977
-0.197168 0.410534 -0.248971
0.446405 -0.696356 -0.229348
0.660901 -0.206543 -0.184869
-0.688768 -0.216182 0.030338
0.549706 -0.342768 0.264523
-0.076021 0.448891 0.284674
-0.159543 -0.296357 0.161482
0.401987 -0.616250 0.112219
0.277585 0.570249 -0.332681
0.407862 0.035149 -0.299047
-0.578669 0.337936 -0.187154
0.536505 0.120595 0.228919
0.227856 0.113396 0.065853
0.319207 0.025997 0.061296
0.691051 -0.621020 -0.037871
-0.224492 -0.560787 -0.150080
0.477645 -0.085851 0.049507
-0.533426 -0.162448 -0.144717
-0.093365 0.076210 0.115562
0.391461 -0.511032 0.103441
-0.219709 -0.259041 0.166463
0.149890 0.352628 0.087117
-0.139448 -0.043145 -0.212891
-0.481186 0.135358 0.201013
-0.311015 -0.533083 0.333059
-0.402524 0.149354 0.360792
-0.604257 0.030320 -0.153406
-0.593923 0.095253 0.185495
0.615443 -0.455156 0.065852
-0.087420 -0.380502 -0.187368
-0.229192 -0.542100 -0.151233
-0.578904 0.579896 0.135955
0.531599 0.507372 -0.362967
0.271379 0.560403 0.061132
-0.104891 -0.267585 -0.195903
-0.113422 0.614138 0.065842
0.376642 0.688651 -0.075893
0.396291 -0.400540 0.299984
0.156839 -0.588615 0.144678
-0.348745 0.395424 -0.225753
0.429967 0.670253 -0.294046
-0.609740 -0.317538 -0.118608
-0.378324 0.115208 -0.194112
-0.519000 -0.005022 -0.162179
0.545366 -0.678315 -0.071897
-0.306075 -0.228453 0.383899
-0.238950 0.045001 0.139494
0.092300 -0.204312 0.154345
-0.455774 0.200128 0.155426
0.501858 -0.695100 -0.236510
0.176728 -0.270501 0.210919
-0.689307 0.055999 0.066180
-0.702704 0.450645 0.031449
0.317842 -0.082359 -0.274646
-0.301064 -0.400723 0.294994
0.558750 0.546929 0.171815
-0.312086 -0.157638 0.254557
0.229119 0.592754 0.018802
0.504167 0.249623 0.012902
-0.052908 0.512799 -0.279661
-0.189752 -0.467151 0.182514
-0.693054 0.170945 0.057127
-0.156551 -0.683227 0.137196
0.491399 0.688630 -0.118955
-0.145158 -0.056796 -0.210737
-0.433507 -0.315810 0.410718
0.349493 -0.421106 0.261487
0.010012 -0.237450 0.131403
0.219600 -0.327459 0.139260
-0.405698 -0.442430 0.419110
-0.669456 -0.249699 0.158197
-0.547761 -0.462324 -0.113341
0.198633 0.197625 0.061809
0.459207 -0.494417 -0.254633
-0.513417 -0.145358 0.296525
-0.188685 -0.201399 0.156377
0.322213 -0.431205 0.107828
0.558853 0.420553 0.154159
-0.474112 0.245058 -0.193069
0.282950 -0.145894 -0.263429
-0.548150 -0.160434 -0.142802
0.430947 -0.097556 0.057349
-0.150005 0.669257 -0.088273
0.402507 -0.337911 -0.261803
-0.095323 0.274092 -0.250238
0.017572 0.488669 0.267361
0.238107 0.490862 0.235515
-0.673964 0.143099 -0.154435
-0.272242 0.053903 0.143399
-0.013733 0.664511 -0.190277
0.151267 0.565737 0.163439
0.074807 0.461215 -0.292936
-0.510508 -0.005902 0.336785
-0.308951 -0.202996 0.269512
-0.464397 0.148536 0.336741
0.170064 0.035798 0.081729
-0.665497 -0.709744 0.041467
-0.659088 0.162900 -0.158505
-0.693395 0.626464 -0.198909
0.129545 0.398997 0.260068
-0.476124 -0.309198 -0.138588
-0.295681 0.154252 -0.209783
-0.196789 -0.683883 -0.142018
-0.205616 -0.299130 0.168361
-0.125664 -0.563324 0.182725
-0.100008 -0.090593 0.132824
0.194754 0.661840 -0.296892
0.672804 -0.057927 -0.081463
-0.300886 -0.171117 0.377548
-0.201160 -0.565278 0.193745
0.256815 0.059121 -0.279726
0.565997 0.641795 -0.034311
0.434916 -0.099728 -0.289740
-0.320335 -0.477249 -0.144501
-0.679957 -0.610289 0.033628
-0.030803 -0.698784 -0.077366
0.652752 -0.147243 -0.232258
-0.595798 0.083330 -0.159802
0.632645 0.659936 -0.253166
-0.498216 -0.649864 -0.102110
-0.289688 0.539802 -0.248340
-0.074276 0.193981 -0.245424
0.354986 0.667900 -0.291409
-0.675530 0.465656 -0.185749
0.232796 -0.467196 0.121912
-0.657773 0.253031 0.179226
0.322459 0.649884 -0.000172
-0.471410 0.478911 -0.216322
0.167211 0.020468 -0.263095
0.527499 -0.684332 -0.130055
-0.686437 0.347370 -0.172619
0.199019 0.672886 -0.179461
0.042228 0.268890 0.077274
-0.673077 0.272588 0.179509
-0.580621 0.668634 0.065759
0.407272 -0.487433 0.169644
-0.007431 0.071263 0.118860
-0.654226 -0.475565 0.230056
-0.280044 0.034224 0.146442
0.131840 -0.697727 -0.187800
0.398073 -0.632129 0.114333
-0.222875 -0.690638 0.082105
-0.665775 0.612165 -0.201473
0.331028 -0.047980 0.066834
-0.701791 0.461368 0.039281
0.420901 -0.458676 0.302139
-0.528449 -0.108300 0.198600
0.466343 -0.677923 -0.038172
0.340284 0.121534 -0.297801
0.306137 -0.002518 0.065959
0.267117 0.304627 0.041524
-0.504365 -0.443505 0.315417
-0.724113 0.649411 -0.086813
0.418384 -0.540940 -0.244229
0.261469 -0.364949 0.147247
-0.583370 -0.713246 -0.026928
0.496463 -0.473837 -0.261989
-0.032135 0.346818 0.092464
-0.687974 0.020504 0.070183
-0.255913 -0.171880 -0.183599
0.436792 0.220569 0.036681
0.023247 0.672464 -0.118386
-0.665282 0.256573 0.179957
-0.534226 0.065889 0.184203
-0.318298 0.616972 -0.251782
0.113822 -0.624897 0.154396
-0.254645 -0.063151 -0.194412
0.255885 -0.176498 0.298217
0.549212 0.097402 -0.325408
-0.504837 -0.279219 0.336047
0.555087 0.001518 0.029857
-0.445978 0.158083 -0.188600
-0.713015 0.207310 -0.074779
0.581224 0.678093 -0.266032
-0.564490 -0.708509 0.017070
0.529099 0.300387 -0.342370
0.485162 -0.302507 0.069612
-0.187439 0.578959 -0.266834
0.680607 -0.491029 0.060013
-0.054876 -0.020857 -0.227200
0.525418 0.225098 -0.334481
-0.249803 0.372825 -0.237734
0.666342 -0.259561 -0.155176
-0.243677 0.424975 -0.243712
-0.061799 0.011982 0.159324
0.144494 -0.673060 0.134375
-0.670878 -0.650277 0.090219
-0.604782 -0.042287 -0.146232
0.277969 -0.592564 0.127691
-0.401547 -0.645129 -0.116438
0.355286 0.664849 -0.324389
0.652621 -0.299909 -0.255344
-0.361568 0.125938 0.357207
-0.533200 -0.086050 -0.152220
-0.434728 -0.490970 0.428019
-0.134935 -0.590046 0.186668
-0.503683 0.225725 0.159795
0.610951 -0.282481 -0.297120
-0.382209 0.675592 0.066672
-0.098574 0.000680 0.123694
0.240075 -0.505827 0.124645
0.505613 0.049088 0.240341
-0.315889 -0.124234 0.233275
-0.653805 0.159972 0.187756
0.504766 -0.298850 0.274482
-0.720482 0.151955 -0.134141
0.407755 -0.690640 -0.153331
0.426561 -0.684962 -0.099162
0.246268 -0.510438 0.124208
-0.055586 0.567817 -0.284656
-0.632468 -0.180297 0.217966
0.691758 -0.607581 -0.031057
0.606191 0.322624 -0.355602
0.592852 -0.476341 -0.275569
0.442917 -0.040305 -0.296698
0.182357 0.359881 0.153147
-0.504938 -0.512323 0.301481
-0.673030 0.080010 0.181545
0.083104 -0.243805 0.121540
-0.276561 0.245576 -0.221455
0.280471 0.368986 0.214629
0.224240 0.612895 -0.329200
0.527834 -0.650371 -0.249228
0.338680 0.019454 -0.287590
0.574457 0.674879 -0.298132
-0.257482 -0.052839 0.151719
-0.684972 0.668711 0.105548
-0.124081 -0.594374 0.185534
0.660560 0.612513 -0.068198
-0.386570 0.606726 -0.240988
0.662509 -0.092172 -0.157198
0.272322 0.108751 -0.286803
-0.162372 0.543163 -0.266930
-0.204310 -0.617407 0.199294
-0.149042 0.432034 0.088757
0.604629 -0.051285 0.027914
-0.307130 -0.200938 0.381360
-0.515469 -0.694697 0.147589
-0.199061 -0.127946 0.150683
-0.390062 -0.087190 -0.172639
0.210871 0.526735 -0.318858
0.603687 -0.669120 0.005417
-0.579824 -0.712250 -0.017516
-0.374302 0.296887 0.134280
0.007497 -0.387994 0.146483
0.154044 0.557309 0.071590
0.646699 0.010219 -0.250981
0.619766 0.541528 -0.032220
-0.382832 0.378356 0.127538
-0.263403 -0.282685 0.175041
0.266434 0.649295 0.007922
0.313836 -0.582151 0.121528
0.071227 0.596798 -0.305679
0.253600 -0.150656 0.296018
0.653715 0.029221 -0.200000
0.439180 0.681757 -0.020029
0.403597 -0.034063 -0.291668
-0.163597 0.677584 0.006522
0.356359 0.367446 0.169709
0.046357 -0.005761 0.311575
-0.321526 -0.039951 0.206775
0.562922 0.069439 -0.324640
-0.176782 0.653164 -0.251675
-0.563510 -0.592528 -0.098351
0.045175 0.096714 0.301725
-0.682172 0.057676 0.115461
0.566871 0.128521 -0.330983
-0.174828 0.250486 0.110206
0.000497 0.559819 0.262853
0.668796 0.274737 -0.060672
0.617670 -0.664828 0.046440
0.653310 -0.259477 0.041288
-0.430710 -0.650444 0.234996
-0.310878 -0.152788 0.263564
0.390677 -0.459885 0.261172
-0.563748 0.501334 0.141462
0.001295 -0.164433 0.125514
-0.306921 0.618506 0.093169
-0.722912 0.410499 -0.113274
-0.320363 -0.124686 0.375802
0.639149 0.366353 -0.251125
0.556297 0.387335 0.131766
0.650609 0.245665 -0.189901
0.362549 0.066202 -0.295584
-0.343532 0.305555 -0.217713
-0.449259 0.054312 -0.177983
0.239584 -0.256998 0.308426
0.449945 0.614900 -0.361769
0.460556 0.475547 -0.349665
0.567048 -0.081713 -0.310453
0.675382 -0.344887 0.046473
0.566771 -0.291800 -0.289872
-0.053027 0.674704 -0.065779
0.253654 -0.029421 0.076117
-0.098715 0.673274 -0.064130
-0.118961 0.357029 -0.254957
-0.313933 0.110685 -0.202905
-0.009965 0.352997 -0.270196
0.118347 0.554104 0.050385
0.206626 0.558607 0.065948
-0.690153 0.560420 0.133661
0.272752 -0.629762 -0.214656
0.175649 0.566016 0.157345
-0.407112 -0.530834 0.393165
-0.484511 0.648632 -0.185639
-0.305962 -0.381179 0.264166
0.087407 0.662908 -0.245305
0.230559 -0.671014 -0.204571
-0.674423 0.654672 -0.049662
0.570174 -0.264512 0.053704
0.136191 -0.332682 0.122616
-0.567514 0.408823 0.151048
-0.096343 0.673835 -0.058972
-0.287426 -0.582022 0.207755
0.273034 0.646790 0.007220
-0.500928 -0.285757 0.361963
-0.052861 0.472914 -0.275768
0.475316 0.652371 -0.369071
0.192350 0.315041 -0.295503
0.416816 -0.352626 -0.262416
0.019896 0.096947 0.176162
-0.297670 -0.135373 -0.181179
-0.686963 -0.140726 0.053705
-0.614429 0.386449 -0.186768
-0.262074 -0.705110 -0.059199
0.259851 -0.669667 0.127874
0.475814 -0.686657 -0.135811
-0.299633 0.373970 0.116033
-0.518656 -0.149409 0.259932
-0.695177 0.224012 0.050250
-0.095367 0.232587 -0.246173
0.489717 0.233026 0.151158
0.255959 0.531767 0.228955
0.144915 0.049100 -0.262697
-0.324024 -0.001042 0.195260
0.025190 -0.162707 -0.224815
-0.698825 -0.341067 -0.056930
0.368671 0.562327 0.045548
0.395808 0.670142 -0.282490
0.031487 0.104456 0.264384
-0.704798 -0.304883 -0.092727
0.066562 0.290252 -0.275037
0.016417 0.409623 0.275255
0.463089 0.686743 -0.128727
-0.328977 0.042176 0.167500
0.541430 0.694348 -0.076026
0.334377 0.560852 -0.339908
0.378462 0.370377 0.193041
-0.408530 0.028159 -0.181268
-0.220189 -0.599533 -0.146909
-0.519437 -0.546372 -0.109186
0.185969 0.573152 0.230384
0.206153 0.560682 0.088486
0.659655 -0.618684 -0.253319
-0.166621 -0.398526 -0.174246
0.212087 -0.324060 -0.235845
0.347218 -0.109835 -0.276173
0.385378 0.667204 -0.310248
-0.570606 0.657019 -0.063125
-0.492824 -0.504547 0.385867
-0.663909 0.670397 0.115846
0.648103 0.323603 -0.195798
-0.299411 -0.193082 0.336522
-0.142821 0.285119 0.102229
0.061339 -0.605915 0.160068
-0.063496 0.555190 0.129967
-0.675181 0.027648 0.159148
-0.211832 0.240924 0.116448
0.230921 0.320101 -0.301530
0.323207 -0.463288 -0.238170
-0.247300 0.400200 0.105962
0.521002 0.689416 -0.121538
-0.479277 -0.367187 0.422306
0.000188 0.387802 -0.275055
0.644636 -0.473971 0.063504
-0.437851 0.373668 0.135887
-0.285898 0.336317 0.117745
0.348696 0.194033 0.100774
-0.288435 0.652785 -0.214088
-0.701203 -0.252608 -0.060419
0.422966 0.351239 0.014613
-0.594470 -0.694542 0.178760
-0.466051 0.442548 0.133197
0.698711 -0.510734 0.030802
0.450390 0.324867 0.013258
-0.274315 -0.700978 -0.010102
-0.529418 0.438475 -0.204048
-0.540713 -0.492648 -0.111387
-0.031129 -0.221237 -0.211014
-0.586040 0.438754 -0.195954
-0.460900 0.161726 -0.186816
-0.183184 0.035966 -0.214353
0.321807 0.606076 -0.342527
0.030645 0.631728 -0.303274
-0.149015 0.671362 -0.065956
-0.287685 -0.648757 0.214317
0.615266 0.390926 -0.016849
-0.087116 -0.398723 -0.185630
0.414702 0.107736 0.247646
-0.498721 0.674633 0.099833
-0.033798 0.357832 0.211761
-0.396380 -0.387214 0.412374
-0.315818 -0.539204 0.268898
