0.262035 -0.561222 0.312700
0.669483 -0.314463 0.072194
-0.161622 0.674291 -0.230798
0.264864 0.355894 -0.226527
-0.473322 -0.612235 -0.246200
-0.389312 0.183650 0.308268
0.326580 0.650465 0.118524
0.056408 -0.095691 0.281920
-0.645559 0.571321 -0.172771
0.426076 0.454514 0.229208
-0.677062 0.054205 -0.023312
-0.441213 0.562514 0.300792
-0.269042 -0.501942 0.099649
0.665396 -0.406813 -0.226264
0.649921 0.324767 0.121080
0.526304 -0.177702 0.115034
0.315041 -0.208983 0.111391
0.163395 -0.001096 0.126567
0.721725 0.570110 -0.077858
-0.622910 -0.165610 -0.244991
0.020271 -0.118106 0.273948
0.415365 0.429916 0.323173
-0.544488 0.023899 0.143405
0.477365 -0.504964 -0.230075
-0.554475 0.143835 -0.241391
0.706527 0.286648 -0.128733
-0.430627 0.396200 0.309323
-0.146752 0.006328 0.105720
-0.652343 0.467857 -0.112029
0.150239 0.522721 -0.227018
-0.625230 -0.484934 0.094070
0.526141 -0.123869 0.115467
0.210833 -0.658267 0.106087
-0.385811 -0.124971 0.302183
-0.164619 -0.492860 0.247841
-0.639877 0.693915 -0.093683
-0.693830 -0.265779 -0.105596
0.228129 0.057489 0.248277
-0.498046 -0.233323 -0.243534
-0.461867 -0.550292 0.096163
0.523914 -0.137271 0.115323
0.223554 -0.295912 0.109220
-0.290904 0.375166 -0.235291
0.577882 0.536868 0.121639
-0.384722 0.370453 0.309851
-0.135911 0.588002 0.110596
0.022717 0.255017 -0.231229
-0.681948 -0.002439 0.085096
0.651746 -0.569145 0.113883
0.506394 0.038207 0.116460
0.067189 0.080043 0.314757
-0.565648 0.436815 0.102477
-0.655146 0.328267 0.100163
0.709101 0.361753 -0.022086
-0.584501 -0.250970 -0.245064
0.067679 0.428200 -0.229107
0.204164 0.589616 0.116067
0.537066 0.313299 -0.222503
0.241355 0.614007 -0.224818
0.642226 -0.325960 0.115696
0.024709 0.649005 -0.228012
0.262111 0.090251 -0.228718
-0.192806 -0.053523 0.104497
0.676866 -0.241846 -0.138557
-0.442639 0.684211 -0.235228
-0.315829 0.443172 0.163835
-0.364134 0.424373 -0.236068
0.349705 -0.121361 0.112656
0.126424 0.007952 -0.231561
-0.091636 0.600121 -0.230274
0.236977 0.632843 0.116943
-0.531017 -0.528020 -0.246445
0.466374 0.269672 0.147674
-0.447550 0.491936 0.309825
-0.638202 -0.656335 0.088765
-0.679943 -0.030075 -0.143456
-0.652806 -0.527050 -0.248392
0.655684 -0.609766 -0.111200
-0.642726 0.618834 -0.182566
0.015131 0.457761 0.316974
-0.116143 -0.651529 0.100893
-0.165997 -0.547874 0.293216
-0.152212 -0.551753 0.101121
-0.645427 0.603262 -0.065702
-0.494749 -0.302759 -0.244042
-0.180591 0.408948 0.145517
0.109348 0.549347 0.114220
0.264060 0.619768 0.117272
0.706297 0.344848 0.096600
0.180294 0.375772 0.113955
-0.104188 -0.070466 0.105782
-0.068070 0.662945 0.112291
0.359611 -0.423252 0.315381
0.578022 -0.397412 -0.227590
0.320242 -0.575444 0.108512
0.105922 0.312500 -0.229429
0.676574 -0.267879 -0.213962
-0.695540 -0.244873 0.079652
-0.610671 0.165665 0.099562
-0.207562 -0.450709 -0.240629
0.422617 0.542121 0.119189
0.077560 -0.077186 0.219726
0.567908 -0.609431 -0.229467
-0.413742 -0.002493 -0.240315
-0.198486 0.188978 -0.235313
0.095352 -0.162570 0.108240
-0.705337 -0.484465 -0.158836
-0.691701 -0.179375 0.070419
-0.681667 -0.080149 -0.214037
0.099684 0.480140 -0.228173
0.592561 0.292827 -0.221777
-0.675968 0.014741 -0.236234
0.419819 -0.295043 0.112377
0.381032 0.217382 -0.225782
-0.617904 0.525872 0.102358
0.023253 0.536475 0.289956
0.146263 -0.260047 0.108269
0.068926 0.283929 0.111425
-0.535659 0.173209 0.117338
-0.510658 -0.106186 0.303977
-0.518769 -0.470902 -0.245787
-0.645198 0.581873 -0.157797
0.008772 0.173323 -0.232113
0.439259 -0.131693 -0.227669
-0.517126 0.520527 0.185374
0.020342 0.351050 0.217701
0.013462 0.215854 -0.231694
0.515519 0.193872 -0.223814
-0.586972 0.019406 -0.242918
-0.092617 0.167122 -0.233790
-0.551876 -0.069459 0.279408
-0.325344 0.028565 -0.238645
-0.225168 -0.606702 -0.242173
0.272608 -0.420664 0.314006
0.558362 -0.198932 0.115377
0.115020 0.231740 0.111743
-0.592005 -0.385622 -0.246273
0.005293 0.158890 -0.232285
0.035606 0.210863 -0.231379
-0.048243 0.587938 0.112002
-0.422130 0.574195 -0.235788
-0.548249 -0.032752 0.179658
0.529779 -0.227760 -0.226993
0.178616 -0.404211 0.312630
-0.709433 -0.499021 0.051196
-0.320857 0.376542 0.245228
-0.541911 0.076386 0.167992
0.123659 0.560326 -0.227141
0.517819 -0.550246 0.167086
-0.682318 -0.082681 -0.181487
-0.075963 -0.008046 0.183956
-0.008911 -0.671592 -0.239227
0.657831 0.617110 0.123570
-0.551697 -0.070739 0.263296
-0.133197 -0.144921 -0.236964
0.428579 -0.437809 -0.230315
-0.467554 -0.007879 0.305464
0.061433 -0.660863 0.103668
-0.623609 0.027835 -0.243438
0.302141 0.286857 -0.226487
-0.478537 -0.123669 0.099344
-0.337222 0.062451 0.158379
-0.699840 -0.404484 -0.222013
0.675425 -0.249224 -0.072825
0.652713 -0.638195 -0.023506
-0.263976 -0.487043 -0.241828
0.069760 0.199863 -0.230919
-0.319687 0.404528 0.271427
-0.327736 0.035752 -0.238626
0.517212 -0.417920 -0.228732
0.224274 0.328774 0.229944
-0.364471 -0.641050 -0.244686
0.112856 -0.045852 0.188533
-0.029683 -0.555674 0.307581
0.120884 -0.567221 -0.236300
-0.675548 0.056596 -0.111776
0.500421 0.089789 0.116781
-0.305205 -0.285756 0.100816
0.520711 -0.656687 -0.230606
0.334034 0.151857 0.211293
0.092608 -0.063759 0.217331
0.679955 0.251813 0.120972
0.515454 0.337150 -0.222657
0.161620 -0.618839 -0.236063
0.466703 -0.458366 0.316816
0.109385 -0.514732 -0.236060
0.047229 -0.189048 0.107254
0.628814 -0.573512 -0.228199
-0.179791 0.420548 -0.233141
0.188085 0.231142 -0.228768
0.115621 0.491623 0.113854
0.225919 -0.557978 -0.234539
-0.347744 0.072135 -0.238653
-0.341130 -0.209335 -0.240822
0.677974 0.639114 -0.217607
0.226566 -0.364819 0.311164
0.694912 0.062288 -0.195562
0.679080 -0.198001 -0.121916
0.695659 0.099260 -0.109661
-0.481371 0.078639 -0.240745
0.363344 -0.459153 -0.231535
0.450031 -0.118732 -0.227392
-0.331059 0.666836 -0.233577
0.357005 0.513569 -0.223773
-0.542902 -0.571196 -0.246985
0.044897 -0.559882 0.308803
-0.637768 0.705822 -0.185824
-0.305170 -0.162607 -0.239867
0.099915 0.032885 0.314901
-0.373582 0.181753 -0.238181
0.702524 0.266349 0.054544
0.445432 0.512974 -0.222359
-0.137891 0.619067 0.110815
-0.291123 0.549853 -0.233882
-0.290443 0.437816 0.106902
-0.127207 -0.570399 -0.240307
0.532589 0.300796 -0.222675
-0.381002 -0.571617 0.097288
-0.655566 0.132459 -0.243105
-0.341472 0.002843 0.215268
-0.075817 -0.191998 0.105255
-0.201399 -0.659963 0.099457
0.478070 0.172740 0.117093
0.027404 0.448472 0.117240
-0.339601 0.044369 0.245519
-0.431652 -0.279967 0.098833
-0.613700 0.627201 0.103245
0.607507 -0.061565 0.117276
-0.447235 -0.461925 0.097112
0.020014 0.354688 0.251926
-0.594945 -0.450769 -0.246847
0.640076 0.446253 -0.219775
0.269796 0.641848 0.117543
-0.061059 -0.637880 0.101888
-0.373923 0.059411 0.307510
0.678614 -0.203111 -0.110518
0.707268 0.312733 -0.081856
0.644177 0.045258 -0.222950
-0.321309 -0.302915 0.100419
-0.494770 -0.615991 -0.246575
0.297097 -0.194969 0.111216
0.292160 -0.344001 0.109932
-0.661912 0.318038 -0.040398
0.515919 -0.718490 -0.221836
0.353919 0.443990 0.135623
-0.450090 0.348813 0.308627
-0.586166 0.233621 -0.241174
0.706454 0.325446 0.016326
-0.264651 0.508961 -0.233788
0.097551 -0.412768 -0.235426
0.189594 0.406254 0.114351
0.027632 0.503679 0.302358
0.311900 -0.147250 -0.229839
0.684347 0.414959 -0.219317
-0.185492 0.347558 0.237694
0.493005 -0.176776 0.114507
-0.310545 0.544535 0.191653
0.119371 0.516221 0.114113
0.046573 -0.651383 0.103506
0.664455 0.025769 -0.222782
-0.614680 0.215692 -0.241776
0.669252 -0.326770 0.042511
-0.422651 -0.251846 -0.242474
-0.079751 -0.420940 -0.238337
-0.401484 -0.351538 -0.242940
-0.484807 0.706603 -0.229317
0.215981 0.045789 0.112611
0.188026 -0.152962 0.109805
0.509780 0.360912 0.225760
-0.680747 -0.064713 -0.217210
0.726403 0.637495 -0.134086
0.320650 0.140401 0.291217
-0.203641 -0.460539 0.101033
-0.494413 0.385910 0.308216
0.455435 0.061191 -0.225851
-0.155923 -0.244703 -0.238135
0.115865 -0.418961 -0.235182
-0.198014 -0.345185 -0.239623
-0.313768 0.685411 -0.233150
-0.400728 0.529902 -0.235802
0.256891 0.629826 -0.224440
-0.612869 -0.221045 -0.245278
-0.292714 -0.655173 -0.243649
-0.052498 0.337008 0.114445
-0.635532 0.591168 -0.239076
-0.655891 0.397778 -0.138032
0.719072 0.521347 -0.084141
-0.199976 0.107270 0.105682
0.522441 0.029650 0.116649
0.395699 -0.190000 -0.228840
0.533254 0.646178 0.119536
0.201420 0.308409 0.237804
0.567319 -0.718035 0.111325
0.206275 0.193253 0.317904
0.527537 0.639708 -0.220017
-0.684552 -0.092923 -0.075283
-0.689648 -0.180138 -0.064009
0.337433 -0.329389 0.110777
0.519875 -0.445533 0.317773
0.411118 0.473741 0.133830
0.599901 -0.353345 -0.226883
0.484617 -0.719703 0.109187
0.261539 -0.318109 -0.232029
0.139787 0.468485 0.114055
-0.425444 -0.480908 -0.244370
0.264189 0.319295 -0.226834
-0.045487 -0.396289 -0.237588
0.650288 -0.056042 -0.223671
0.071175 0.654438 0.114457
-0.366589 -0.055822 -0.239989
0.158591 0.388509 -0.227969
-0.309559 -0.136772 -0.239728
0.211103 0.592931 0.116205
0.233717 0.624850 -0.224853
0.670277 -0.375144 -0.198240
0.282531 0.267886 0.319731
-0.532981 -0.032995 0.304211
-0.081709 -0.003737 0.265477
-0.388207 0.595068 -0.235075
0.210033 0.570121 0.116004
0.310236 -0.161345 0.111699
0.538381 0.131297 -0.223953
0.349270 -0.396926 -0.231258
-0.540866 0.113147 0.234021
0.693375 0.106706 0.063726
0.331621 0.073148 -0.227741
-0.576796 0.490236 0.102730
-0.461685 0.290983 -0.238712
0.029264 -0.119941 0.281318
0.632795 -0.230451 0.116317
-0.643762 0.324037 0.100312
-0.181476 0.416442 0.229361
-0.136128 -0.549654 0.304246
-0.671036 0.114538 -0.191488
-0.170808 0.548005 0.222095
-0.666744 0.196969 -0.168530
-0.158459 0.222313 -0.234401
-0.476801 -0.160667 -0.242606
-0.293990 -0.407950 0.100008
0.356456 0.171433 0.138894
0.125909 0.410453 -0.228316
-0.010723 0.119262 0.293811
-0.712891 -0.617070 -0.154170
-0.129068 0.617816 -0.230732
0.412031 0.208783 -0.225354
-0.035874 -0.349957 0.300777
0.429301 -0.163321 0.113594
-0.697285 -0.345958 -0.174122
-0.554137 -0.148242 -0.243746
0.365535 -0.130248 -0.228841
-0.421602 0.146648 -0.239236
0.683994 0.508123 -0.218570
-0.318923 0.413535 0.255041
0.400346 0.626016 0.119510
0.723532 0.590964 -0.118317
-0.326270 -0.636649 0.097641
0.342731 0.159371 0.170568
0.563786 0.647495 -0.218183
0.525240 0.322678 0.215461
0.514261 -0.581322 0.282819
-0.497606 0.653591 0.105321
0.208264 0.039804 0.257885
-0.692643 -0.201280 0.095281
0.078610 -0.369398 0.311307
0.672505 -0.307989 -0.098139
-0.649832 0.543184 -0.000532
-0.660379 -0.041188 0.097092
0.664051 -0.486143 -0.200498
0.690025 -0.026860 -0.204659
-0.081526 -0.366817 0.308758
-0.596063 0.440747 0.102021
-0.150269 -0.342498 0.187021
0.203544 -0.208914 -0.232077
-0.527971 0.150060 0.305771
-0.427735 0.086071 -0.239824
0.715752 0.480315 -0.019640
-0.263594 0.369757 0.106783
0.322293 0.046501 0.113573
-0.177384 0.292398 -0.234138
-0.140883 0.468243 -0.232131
0.709975 0.393760 -0.219077
0.570063 -0.273476 -0.226716
0.059183 0.376735 0.112019
-0.685583 -0.442131 -0.248232
-0.348155 -0.097713 0.280075
-0.293791 0.088711 -0.237653
-0.675350 0.111789 0.075196
-0.687959 -0.107043 0.092165
0.118863 -0.513147 0.310791
-0.687102 -0.158907 -0.150484
-0.162348 -0.459839 0.306709
-0.250249 -0.087716 -0.238380
0.664153 -0.427844 0.003863
0.669106 -0.329970 0.040279
0.030444 0.114637 -0.232239
-0.065086 -0.023110 0.294908
0.248157 -0.053869 0.111571
0.463724 -0.378194 0.314373
0.599575 -0.661697 -0.229381
0.359029 0.078445 -0.227258
-0.340924 -0.370068 0.099561
-0.330038 0.196271 0.181818
0.405558 0.636837 0.119681
-0.028585 0.287553 0.109890
0.518218 0.378908 -0.222275
0.385597 -0.711079 -0.230480
-0.644466 0.595850 -0.154149
0.684652 -0.060203 0.019267
-0.337005 0.105655 0.300774
0.338838 -0.034897 -0.228499
0.298921 0.386953 0.320957
-0.626174 0.299338 0.100394
-0.265023 0.478906 0.107642
-0.175408 0.526741 0.239296
0.551409 0.371163 0.119874
0.595392 0.629066 0.122665
-0.078204 0.318801 0.109346
0.714834 0.412170 -0.207356
-0.695573 -0.289846 -0.080917
-0.608397 0.070471 0.098829
-0.537802 0.310101 0.101899
0.097849 -0.518172 -0.236273
0.274529 0.596855 -0.224424
-0.594266 -0.604401 -0.248078
0.178111 -0.573980 -0.235436
0.471647 0.316016 -0.223530
0.719125 0.617612 -0.217121
0.463618 0.275399 -0.223988
0.715490 0.435915 -0.163505
0.255518 0.051564 0.112542
-0.015225 -0.083606 -0.234575
0.694947 0.096280 -0.074778
-0.551798 0.072284 0.099752
0.330689 -0.314838 -0.230892
-0.674929 -0.547551 0.092766
0.480786 -0.077071 0.115117
-0.275203 0.499709 -0.234032
0.076938 -0.063591 -0.232934
0.644177 -0.727050 -0.072488
-0.444435 0.180496 -0.239328
0.695262 0.063506 -0.213560
0.690460 0.067830 0.110014
0.518324 -0.535262 0.188894
-0.074962 0.452575 0.315487
0.572701 -0.310460 0.114706
-0.209327 -0.185360 0.103166
0.587310 0.049799 -0.223826
-0.486311 -0.055085 -0.241905
0.722942 0.579499 -0.121959
-0.489595 0.006956 -0.241456
0.192384 -0.218905 0.109342
-0.353273 0.594494 -0.234519
0.347035 -0.620777 0.108576
0.263069 -0.686749 0.106695
-0.351787 -0.037235 -0.239602
0.378954 -0.699975 -0.233231
-0.711375 -0.533027 0.052675
-0.392531 -0.011769 -0.240050
-0.252458 -0.623263 -0.242745
-0.499271 -0.396773 -0.244875
-0.310058 0.252345 0.105088
-0.215740 0.105277 -0.236266
-0.533737 0.231581 0.205252
-0.127041 -0.190901 0.104442
-0.275108 -0.469570 -0.241866
-0.443036 -0.589174 -0.245528
0.018238 0.145039 0.278875
0.350852 -0.623769 0.108613
0.335183 -0.415128 0.315055
-0.681966 -0.260806 -0.246708
0.416210 -0.210354 -0.228675
-0.336781 -0.503980 0.098545
0.023546 0.399848 0.188785
0.305234 0.573037 0.117555
-0.676919 -0.187415 0.095645
0.656185 -0.569633 0.001873
0.458556 -0.271967 0.113185
0.147073 -0.269337 0.108207
0.419699 0.398601 -0.223697
0.662659 -0.501197 -0.165716
0.629377 0.545176 0.122532
-0.167334 -0.586092 0.100601
0.093787 -0.142567 -0.233302
-0.126553 0.440659 0.314562
-0.688046 -0.197299 -0.228841
0.712188 0.398382 -0.087549
0.029282 0.316457 -0.230627
0.123688 -0.604416 0.105123
-0.281364 -0.433281 0.100006
-0.691144 -0.199020 -0.036342
-0.397109 -0.601349 0.096790
0.653330 -0.668932 -0.174277
0.684652 -0.042643 0.082834
0.230000 0.021181 0.111887
0.534028 0.023303 0.116783
-0.068949 -0.489598 0.307967
0.161871 -0.180344 -0.232515
-0.179971 -0.246970 0.103139
0.511842 -0.449981 0.317608
0.401264 0.408142 0.322771
0.530815 -0.248382 -0.227143
-0.663664 0.267219 -0.111886
-0.665688 0.045427 0.097707
0.092123 -0.333132 -0.234869
0.487227 -0.554847 -0.230320
-0.125359 0.464528 -0.231911
0.598380 -0.000621 -0.224056
-0.598253 0.100416 0.099234
0.084274 -0.129214 0.108332
0.540638 -0.378521 -0.228038
-0.603778 0.222776 -0.241544
-0.539915 0.095001 0.107369
-0.261883 -0.276814 -0.240095
-0.543078 0.039315 0.108722
0.419116 -0.259110 0.112656
-0.257522 0.057459 -0.237323
0.519126 -0.507089 0.239412
-0.308417 -0.281686 -0.240882
-0.656536 -0.474920 0.093648
0.421436 -0.714036 0.109016
-0.583668 -0.460239 -0.246743
0.694068 0.124734 0.084511
-0.693776 -0.279003 -0.156956
-0.664445 0.250157 -0.123528
-0.572672 -0.375044 -0.245877
-0.152036 0.049828 0.105987
0.174108 0.594682 -0.226053
-0.071855 -0.685344 -0.229653
-0.073224 -0.179688 -0.236282
0.476707 0.399682 0.158530
0.533083 0.190032 0.118116
-0.693858 -0.247823 -0.038855
-0.520905 -0.412601 0.096329
-0.712334 -0.607300 -0.154520
0.483659 -0.432471 0.317298
-0.604627 -0.526567 -0.247615
-0.640777 0.711330 0.027048
0.669652 -0.306493 0.090197
0.288230 -0.235929 -0.230936
0.454215 0.425820 0.121622
-0.242762 -0.209002 -0.239240
-0.162535 -0.477604 0.169413
-0.589777 -0.402410 -0.246373
-0.680910 -0.035256 -0.100206
0.534316 -0.634723 -0.230210
-0.381310 0.166060 -0.238432
-0.339649 0.629695 -0.234016
-0.099268 0.434034 -0.231739
-0.321665 -0.462486 0.099123
0.082507 -0.457912 -0.236032
0.259853 0.369390 0.115181
-0.036403 0.543426 -0.229846
0.669291 -0.310668 0.098259
0.720609 0.559002 -0.046489
-0.651313 -0.463066 -0.247851
-0.633302 -0.122566 0.096869
-0.539839 0.615678 -0.237342
0.084413 0.203428 0.163591
0.575038 0.170865 -0.223044
-0.688376 -0.206926 -0.242477
-0.259855 0.273876 -0.235611
0.048413 -0.103749 0.135415
-0.152928 -0.343402 0.304329
0.626477 -0.281578 -0.225876
-0.326235 0.196188 0.104374
-0.642208 0.702652 0.087421
0.114755 -0.043505 0.292794
0.466032 -0.097509 0.114715
0.082985 0.000994 0.314371
-0.152472 -0.499842 0.306544
-0.703230 -0.379848 0.084548
-0.704254 -0.453869 -0.117616
-0.649847 -0.156932 0.096326
-0.373118 0.045516 -0.239275
0.308727 0.404646 0.299348
-0.239500 0.544066 0.108578
0.115689 0.116375 0.315829
-0.315264 0.458415 0.182719
0.161395 -0.414433 0.312271
-0.102570 0.013850 0.106490
-0.659844 0.326450 -0.142578
0.267295 0.072807 0.112903
-0.228430 0.582008 -0.232616
-0.541477 0.083400 0.165588
0.676519 0.059847 -0.222313
0.024410 0.396952 0.122918
-0.102780 0.419753 -0.231911
-0.044800 -0.044863 0.258292
0.313615 0.029553 0.113296
0.294965 0.021497 0.112932
-0.080272 -0.269323 0.104559
-0.062870 -0.369223 -0.237648
0.142713 0.255606 0.179818
-0.556318 0.330847 -0.239909
-0.690518 -0.235964 -0.210154
-0.232269 0.562271 -0.232837
-0.517594 0.518007 0.206266
-0.192820 -0.265999 -0.238900
0.640595 -0.298972 0.115888
0.603021 -0.417631 -0.227353
0.712472 0.458702 0.112485
0.132405 -0.028485 0.173532
0.409433 0.204454 -0.225431
-0.422249 0.250804 -0.238404
-0.121790 0.560005 0.110596
-0.432336 -0.190323 -0.242132
0.695794 0.436641 -0.218958
0.312047 0.131746 0.135923
0.522535 -0.441451 0.258251
0.339985 0.432114 0.226923
0.571372 0.635137 -0.219350
0.026492 0.480800 0.292684
-0.446867 0.107891 0.306732
0.273726 0.200638 0.319046
-0.320709 0.359747 0.174926
-0.692450 -0.231132 -0.068769
-0.142382 0.545676 0.303270
-0.304831 -0.448020 -0.242169
-0.712383 -0.634036 -0.248107
0.520749 -0.465471 0.285866
-0.034892 0.096797 0.153540
0.501986 0.371007 0.173123
0.460704 -0.488649 -0.230211
0.384777 0.153463 0.115440
0.467694 -0.403437 -0.229410
0.693769 0.058303 -0.136653
-0.000982 0.127735 0.257255
0.520076 0.180285 0.117828
0.005779 -0.098893 0.159071
0.275264 -0.464858 0.313691
-0.698249 -0.309750 0.018655
-0.038662 0.539759 0.312164
0.671445 -0.218502 -0.224645
0.284193 0.503673 0.116657
0.499061 0.494647 -0.221647
-0.254580 -0.050754 0.103528
-0.518794 0.287822 0.307032
0.235384 -0.529799 0.312526
-0.449141 0.114727 0.306750
-0.265044 0.631016 0.108871
0.721635 0.530757 -0.214485
0.468858 -0.557989 -0.230640
0.713164 0.449367 0.034367
-0.668133 0.226585 0.027684
-0.181953 0.182094 0.106576
-0.345281 -0.083891 0.145794
-0.000102 -0.177287 0.106589
0.178379 0.287060 0.115104
-0.520766 -0.210896 -0.243717
-0.532823 0.254256 0.228685
-0.675574 0.049822 -0.134605
0.449087 -0.108680 0.114353
-0.394580 -0.369100 -0.242971
-0.025287 0.599135 -0.229217
-0.641881 0.086357 -0.243258
0.667070 -0.359641 0.063493
0.208180 0.314016 0.168748
-0.352871 -0.115275 0.306436
0.600443 -0.529280 0.113382
-0.375830 -0.326282 0.099355
-0.093139 0.271702 0.108726
-0.607546 -0.325141 -0.246034
-0.234367 -0.254821 -0.239476
0.198063 -0.088453 0.110488
0.007475 -0.591446 -0.238316
-0.294022 -0.107390 0.102437
-0.257252 0.228578 -0.235936
-0.646404 -0.279599 -0.246289
0.427573 0.325887 0.322528
-0.121988 -0.016709 0.105931
0.119113 0.530591 0.114225
0.057543 -0.670583 0.103527
-0.587061 0.157427 -0.241804
-0.096557 -0.621429 -0.240228
-0.488127 0.668660 -0.236084
-0.122005 0.394109 -0.232427
-0.175836 -0.176691 -0.237905
-0.530743 0.056341 0.304969
0.682118 -0.102431 0.029049
0.692437 0.405650 -0.219262
-0.538820 0.128976 0.160065
-0.158050 -0.286884 -0.238510
0.461972 0.266823 0.320867
-0.476728 0.054267 -0.240867
0.500681 0.003058 -0.225594
0.451561 0.533539 0.119584
0.487319 -0.468753 -0.229623
0.263093 0.547435 -0.225007
0.288814 -0.408312 0.314366
-0.012558 -0.422309 0.309416
0.179790 0.014645 0.302027
0.091962 0.674026 -0.215940
0.155959 0.267994 0.268731
0.015024 -0.108048 0.113270
-0.631952 0.290337 -0.241450
-0.631928 0.714192 -0.152523
-0.232914 0.386297 0.107409
0.651358 0.018731 -0.223049
0.276309 0.185208 0.318963
0.714368 0.478177 0.061382
-0.288940 -0.619562 -0.243300
-0.116779 0.608678 -0.230609
0.177314 -0.110660 -0.231703
0.693632 0.050885 -0.154707
0.034747 -0.511190 0.309457
0.204659 -0.385378 0.313201
-0.363409 -0.619990 -0.244499
0.694629 0.098568 -0.046126
-0.691260 -0.254458 -0.229496
-0.541815 -0.070055 -0.242917
0.601009 -0.338329 0.114935
-0.712105 -0.590681 -0.109077
0.290926 0.388247 0.219649
-0.249104 0.464649 0.107782
-0.387236 0.331661 0.309497
0.250247 -0.548511 -0.234072
0.089193 0.038443 0.314774
-0.052989 -0.034485 0.211767
0.694056 0.119948 0.067985
0.151914 -0.317112 0.107899
-0.085729 -0.290673 0.104298
-0.018418 -0.556237 0.299682
-0.104352 -0.097221 -0.236115
-0.108075 0.191369 -0.233842
-0.310424 0.529724 0.130308
0.250777 0.323633 -0.227014
0.359272 -0.328951 0.111131
-0.645928 0.261280 0.099769
-0.542467 -0.584047 0.094597
0.489554 -0.207255 0.114206
0.709417 0.378678 0.018879
-0.435382 0.324902 -0.238016
0.232299 -0.616849 -0.234913
0.722290 0.555559 -0.166726
-0.676154 0.050476 -0.095035
0.214975 -0.175263 0.110057
-0.118654 -0.272800 0.103915
-0.359985 -0.361846 0.099322
-0.355133 0.680893 -0.233850
0.382690 0.283722 -0.225219
-0.426956 -0.491299 -0.244478
0.545370 -0.044655 -0.225263
-0.643496 0.615002 -0.147032
0.559893 -0.088002 0.116299
0.008918 0.331776 0.312089
-0.398056 0.419268 0.310032
0.451898 0.540765 0.119648
0.717775 0.550578 0.104772
-0.162719 -0.462100 0.237267
-0.554652 0.360135 -0.239645
-0.666391 0.266918 0.061913
0.443591 0.249805 0.225088
0.101193 -0.056059 0.222388
0.630969 0.209183 0.119842
-0.666746 0.263160 0.071080
-0.684386 -0.368010 0.094065
-0.596424 0.167519 0.099806
0.019706 0.552919 0.112810
-0.009241 0.271756 -0.231606
0.188182 0.649490 -0.225384
0.455666 0.259956 0.123384
0.099810 -0.644316 0.104418
0.306409 -0.367564 0.116616
0.359713 -0.587781 0.109046
-0.271019 -0.080325 0.103025
-0.514918 0.097980 -0.241127
0.658409 -0.501728 0.104884
-0.296389 -0.136920 0.102160
0.666352 -0.387876 0.007429
0.636430 -0.149410 -0.224648
-0.362967 -0.568697 -0.244077
-0.211578 -0.570779 0.100014
-0.630553 0.105525 0.098757
0.598014 0.517858 0.121808
0.047088 -0.354616 0.299614
0.254057 -0.434695 0.313595
0.093741 -0.495155 -0.236153
-0.641573 0.194495 0.099300
0.644601 0.136784 0.119475
-0.580073 0.165566 -0.241626
0.225110 0.329738 0.264608
-0.201314 0.631827 -0.231778
-0.169564 0.278644 -0.234124
0.258410 0.354766 -0.226640
-0.223345 -0.593462 0.099642
-0.714115 -0.609097 -0.046834
-0.651117 0.545535 0.090325
-0.532072 0.287731 0.301648
-0.607979 -0.179571 -0.244864
0.080038 -0.518215 0.310127
-0.013903 0.115349 0.122103
-0.172004 0.114070 -0.235493
0.345924 0.366941 -0.225137
0.332345 0.522026 -0.224101
-0.359149 0.374145 0.310292
-0.030306 0.239829 0.109476
-0.227965 -0.165383 0.103028
-0.507317 -0.117982 -0.242750
0.022926 0.282389 -0.231004
0.092637 -0.413647 -0.235512
-0.577216 -0.134294 0.097675
0.660783 0.118829 -0.222089
-0.104917 -0.209186 -0.237029
-0.048932 -0.037396 0.149206
0.510498 -0.241851 -0.227417
0.673129 -0.302974 -0.120028
0.664649 -0.389289 0.111534
0.515713 -0.572386 0.222085
0.241989 0.344213 0.168272
-0.162660 -0.471219 0.200527
0.523517 -0.425555 0.252772
0.613324 -0.309467 -0.226313
-0.648150 0.577923 0.017280
-0.671366 0.109497 -0.188601
-0.700886 -0.413128 -0.186226
0.454515 0.000351 -0.226357
-0.430781 -0.466646 0.097338
-0.405428 -0.170172 -0.241537
-0.162244 -0.462149 0.206636
-0.068436 -0.551659 0.103457
0.506959 -0.069243 0.115601
-0.051385 -0.307902 -0.236968
-0.643029 0.527821 0.101971
0.557509 0.103964 -0.223867
0.457973 -0.398384 0.317161
-0.413986 -0.536762 0.097041
-0.361253 0.613387 0.107185
-0.165190 -0.529088 0.153388
-0.476346 0.226724 0.307219
-0.523065 -0.148178 0.098431
0.546458 0.197496 -0.223288
-0.142334 -0.244598 -0.237916
-0.324014 0.306608 0.194681
0.028614 0.496699 0.214116
0.660835 -0.467748 0.072293
-0.697906 -0.284778 0.087027
0.408852 0.280718 0.321862
0.667704 0.455276 0.122421
0.429646 -0.487727 -0.230702
0.356283 0.372291 0.321759
0.358796 -0.232398 0.111904
0.538708 0.619872 -0.219998
0.350639 0.203761 0.320306
0.512970 -0.101710 0.115435
-0.514821 -0.268166 0.097594
-0.539285 -0.250866 -0.244338
0.647157 -0.711903 0.066127
-0.236576 -0.104544 -0.238297
0.715298 0.443829 -0.122540
0.318926 0.173066 0.319549
0.192750 -0.597073 0.106291
0.562126 -0.113653 -0.225552
0.660020 -0.553266 -0.184853
-0.641983 0.642184 -0.145721
-0.589360 0.325024 -0.240486
-0.124451 -0.438673 -0.239198
-0.680520 -0.057276 -0.204899
0.472201 0.303299 -0.223624
0.707441 0.297174 -0.149264
0.382046 0.296402 -0.225127
0.506397 0.404986 -0.222254
-0.632271 -0.577219 0.093211
0.125331 0.048523 0.315435
-0.713020 -0.608747 -0.115769
0.241762 -0.504041 0.312837
0.524009 0.509515 -0.221126
-0.336428 0.558724 -0.234538
-0.166401 -0.033557 -0.236597
-0.056025 -0.148661 0.105923
-0.214950 0.035220 -0.236820
-0.674132 0.091291 -0.077063
-0.407256 0.478699 0.310365
-0.659285 0.310498 -0.236154
-0.138586 0.181317 -0.234413
0.679031 -0.222687 -0.208051
0.533804 -0.282662 -0.227372
0.526076 -0.394153 0.202282
-0.029874 0.188203 -0.232613
0.306405 -0.148290 0.111743
0.035044 -0.011092 -0.233182
-0.281819 -0.093328 -0.238932
0.241591 0.106091 0.317766
0.710861 0.389117 -0.035916
-0.106301 0.015395 -0.235236
0.299085 -0.479427 -0.232730
0.312837 -0.000148 0.113044
-0.645010 0.083139 0.098344
0.032628 0.372015 0.111555
0.722491 0.631162 0.093877
0.479521 -0.689355 -0.231531
-0.489063 -0.351159 0.097336
-0.067240 -0.507252 0.307852
-0.544912 0.056010 0.286758
-0.686820 -0.098472 0.050101
-0.617268 0.381299 -0.240479
-0.176649 0.670528 -0.231069
-0.099955 -0.478621 0.307558
-0.012227 0.541648 -0.229472
-0.333849 0.521251 -0.234799
0.531098 -0.451064 -0.228777
0.297723 -0.253591 0.110752
-0.033676 0.304113 -0.231737
-0.535583 0.221222 0.286198
-0.097914 0.191126 0.107998
0.517945 -0.542816 0.185884
0.292281 0.389696 0.257817
-0.642599 -0.119553 0.096744
-0.060631 -0.112244 -0.235535
-0.651166 0.201430 -0.242477
-0.274563 0.228668 0.105466
-0.647143 0.606885 0.057483
0.519813 -0.487742 0.265336
0.475912 0.136080 0.116762
-0.153232 0.610149 0.110497
-0.694836 -0.249873 0.016445
0.115735 0.477251 0.113739
-0.551925 -0.067005 0.291455
-0.642556 0.691973 0.071095
-0.083277 -0.001701 0.254664
-0.592220 0.354202 0.101383
-0.097434 0.109682 0.107347
-0.344168 -0.053190 0.185487
0.458486 0.276786 -0.224059
0.615759 -0.346405 0.115106
-0.273781 -0.259524 -0.240147
0.210457 -0.211598 -0.231987
-0.316373 0.442725 0.197115
0.406907 0.385374 0.322677
-0.591610 0.164881 0.099862
-0.361977 0.051403 0.307637
-0.068612 0.237843 0.108846
-0.308895 -0.427814 0.099608
0.030833 0.072469 -0.232574
0.663737 -0.439095 -0.010167
-0.310506 0.547856 0.201201
0.407296 0.217559 0.252958
-0.475329 0.235790 0.307309
0.713845 0.423943 -0.101284
0.016231 -0.113436 0.268262
-0.315423 0.482018 0.278317
-0.323089 -0.182173 -0.240313
-0.367276 0.068823 0.307693
-0.322517 0.362772 0.301830
-0.191529 0.030394 -0.236483
-0.691958 -0.179023 0.095471
0.184704 0.165146 0.317331
0.095082 -0.447181 0.310942
0.680735 -0.189890 -0.198719
0.362452 0.451866 0.176237
-0.539922 0.105823 0.146947
0.087139 0.186375 -0.230750
-0.325754 0.256084 0.123431
0.459417 -0.379857 0.317334
0.296285 0.393274 0.257932
-0.093849 -0.469401 0.307731
0.022379 0.387892 0.220387
0.513820 -0.033583 -0.225680
-0.052743 -0.686435 -0.227889
-0.644327 0.666569 0.092793
0.590331 -0.438528 -0.227725
-0.208887 -0.372652 -0.240020
0.086462 0.137735 0.315532
-0.037998 -0.051572 0.223555
0.655687 -0.637400 -0.211344
-0.542496 0.072486 0.191442
-0.203543 0.294931 0.107141
-0.184976 -0.165441 -0.237961
-0.210830 -0.218895 0.102871
-0.104719 -0.632723 -0.240450
-0.654351 0.403947 -0.214455
0.405564 0.215554 0.179816
-0.467296 0.238616 -0.239226
-0.444988 0.329162 0.308550
-0.670055 0.133681 -0.185156
-0.237785 -0.002430 0.104188
0.718726 0.557454 0.068678
-0.539707 -0.624504 0.094314
0.535050 -0.201983 -0.226700
-0.470318 -0.340149 -0.243953
0.284865 -0.560661 -0.233615
0.702014 0.238574 -0.013247
-0.673455 0.073474 -0.184913
-0.060268 -0.555803 0.102564
0.459774 -0.386304 -0.229398
0.006380 -0.085672 0.312441
-0.673936 0.101220 -0.053718
0.661505 0.606962 0.123547
-0.483281 -0.254179 -0.243466
0.199329 0.405654 0.114502
-0.327280 0.262302 0.243810
0.545817 -0.299749 -0.227318
-0.069166 0.064888 -0.234240
-0.152998 -0.402096 -0.239361
0.323748 0.283632 0.320520
-0.600083 -0.167248 -0.244638
-0.347364 0.616582 -0.234245
0.272910 -0.028910 -0.229508
0.081124 0.031469 -0.232098
0.429237 0.452514 0.170142
-0.251845 0.272731 0.106187
0.388952 0.475312 0.140107
0.625581 -0.016899 -0.223751
0.231645 0.440730 -0.226374
0.036997 0.312427 -0.230535
0.543616 -0.258618 0.114658
-0.474001 0.653496 -0.235979
0.552244 -0.532754 0.112581
-0.345761 0.601887 -0.234338
-0.454433 0.191340 -0.239401
0.535568 0.474505 -0.221223
-0.347584 -0.090379 0.269991
-0.130573 -0.424541 0.307504
0.650154 -0.655871 0.076673
0.279897 0.008281 -0.229096
-0.480145 -0.282844 -0.243647
-0.100527 0.070803 0.106983
-0.451982 -0.159961 0.099477
-0.039327 0.002599 0.312421
-0.544721 0.015467 0.127820
-0.129613 -0.679057 0.100455
-0.164922 -0.508621 0.210275
0.477012 0.023423 -0.225810
0.514996 0.355047 0.226745
-0.330097 -0.034734 -0.239233
0.324187 0.637099 -0.223302
0.162990 0.273907 0.209760
0.286893 0.196465 -0.227462
-0.541879 0.111023 0.291287
-0.442690 0.447544 -0.237142
0.381225 -0.432835 -0.231035
0.688452 0.232240 -0.220728
-0.297592 -0.068344 0.102695
0.370606 0.333742 -0.225009
0.031581 -0.648007 0.103293
0.096169 0.214167 0.201626
-0.201144 0.581976 -0.232178
0.639748 0.024342 0.118488
0.302648 0.178692 -0.227353
0.369026 -0.482165 -0.231630
0.616842 -0.241662 0.115970
0.178340 -0.122904 -0.231786
0.038336 0.202294 0.110275
0.565203 -0.704564 0.111400
-0.102656 -0.614652 -0.240271
-0.375980 -0.234880 0.100091
-0.692476 -0.481650 -0.248662
0.438548 -0.568786 0.315472
-0.621405 0.242519 -0.241667
0.528611 -0.093535 -0.225927
-0.663181 0.313688 0.025217
-0.035444 -0.435872 0.308939
-0.223020 -0.144658 0.103275
0.325755 -0.169458 -0.229796
0.355053 -0.103146 0.112889
0.502199 0.276636 -0.223358
0.307585 -0.205028 -0.230375
0.239228 0.341793 0.175641
-0.539422 0.335526 0.102079
0.008997 0.611174 0.113109
0.318096 -0.095244 0.112359
-0.470930 -0.235171 0.098565
-0.150062 -0.234770 -0.237961
-0.665831 0.248515 -0.040573
-0.712116 -0.589787 -0.105172
-0.047916 0.456197 0.315950
-0.326365 0.338097 -0.236159
-0.668039 0.183715 -0.133415
0.316458 0.266944 0.320268
-0.164050 0.405716 0.313678
-0.157345 0.235479 -0.234276
-0.440002 -0.134445 0.099876
0.054863 -0.097106 0.276229
-0.669539 0.201932 0.028647
0.464760 -0.468344 -0.229982
0.199103 0.237676 -0.228538
-0.681645 -0.064279 -0.158073
-0.363533 0.236416 0.309108
-0.659482 0.317525 -0.198063
0.317305 -0.122365 0.112127
0.721896 0.567808 -0.097129
0.343451 0.549809 0.117981
-0.637701 0.502073 0.101848
0.699955 0.192651 -0.047285
0.473862 -0.393629 0.317454
-0.306767 0.454817 0.106777
-0.082931 0.078629 0.107329
0.294292 -0.554056 0.313276
-0.555719 0.279769 0.101367
0.250446 -0.203657 0.110397
0.576277 -0.234199 -0.226299
0.122219 0.452447 0.113643
-0.336720 0.090442 0.227428
0.210494 0.294224 -0.227898
0.438493 0.150544 -0.225400
-0.360892 0.660204 0.107569
0.094896 -0.061624 0.232003
-0.144318 0.182912 0.107186
0.432919 -0.187164 -0.228220
0.208404 -0.213079 -0.232032
0.328791 -0.551177 0.313853
-0.656548 0.359035 -0.236064
0.610539 -0.389350 0.114675
-0.679543 -0.009497 -0.094656
-0.119097 -0.048516 0.105720
0.713013 0.471262 0.123267
-0.096750 0.042372 0.286330
0.656758 -0.485076 0.114643
-0.053546 0.062644 -0.234008
-0.103797 0.035397 0.177648
0.282280 -0.344157 0.109772
-0.348689 -0.114038 0.255261
0.343864 0.161268 0.312064
0.345353 0.436809 0.210877
0.578094 -0.113374 -0.225293
-0.517295 0.546010 0.288374
-0.626442 0.073768 -0.243112
-0.691026 -0.264397 -0.246882
-0.688006 -0.110894 0.081222
-0.498561 0.498211 -0.237629
-0.620941 -0.309179 -0.246120
0.265299 -0.103329 -0.230232
0.675058 -0.217844 -0.224581
-0.137191 -0.146045 -0.237037
-0.214885 0.619919 -0.232092
-0.372506 -0.006045 -0.239682
-0.052978 0.411003 -0.231182
0.622188 -0.364365 0.115064
-0.337143 -0.174182 0.101205
-0.706156 -0.503382 -0.174734
0.418732 -0.539793 0.315388
0.157979 -0.546332 0.311150
-0.309673 -0.454954 0.099376
-0.418387 -0.046110 0.305944
-0.701861 -0.403141 -0.087563
0.719435 0.552867 0.006596
-0.009541 -0.084533 0.266104
0.696000 0.082891 -0.190763
0.697088 0.114302 -0.146908
-0.642817 0.669330 0.005925
-0.175755 0.626962 -0.231407
-0.097843 0.093734 -0.234467
0.277948 0.590226 -0.224423
-0.700179 -0.386471 -0.135113
0.068670 0.644252 -0.227345
0.666981 -0.433958 -0.199658
-0.033289 -0.057337 0.242491
0.693915 0.195763 0.120743
0.030104 -0.675557 0.103046
0.257010 0.083124 0.222294
0.694958 0.111807 -0.019323
-0.648182 -0.044258 0.097263
0.390983 0.175259 0.115716
0.079619 -0.435479 -0.235897
-0.699730 -0.329228 0.043206
-0.048415 -0.326370 -0.237070
-0.134122 0.550998 -0.231353
-0.501222 -0.277716 0.097735
0.677186 -0.179341 0.067059
0.672136 -0.257247 0.109091
0.028853 0.296336 -0.230796
0.040467 -0.691702 -0.225410
0.263860 0.030787 -0.229171
0.496277 0.297395 0.309498
-0.169600 0.547487 0.272216
0.511713 0.510270 -0.221317
0.704444 0.303235 0.064910
0.628646 -0.382967 0.115018
-0.672524 0.099860 -0.149145
-0.163182 -0.601769 -0.241138
0.614607 0.171333 -0.222406
0.091925 0.297760 -0.229772
0.533765 0.335761 -0.222374
0.601694 -0.546247 0.113265
-0.513531 0.047944 -0.241509
-0.601301 -0.648503 0.093131
-0.341702 0.005492 0.239603
-0.653461 0.458289 -0.074971
0.493451 -0.383443 0.317851
-0.057936 -0.030098 0.255936
0.682503 -0.092933 0.038677
-0.342059 -0.007940 0.213898
-0.068794 0.675461 -0.229299
-0.433383 -0.648564 -0.245853
0.316679 0.230241 -0.226711
0.508399 -0.478482 -0.229363
-0.711070 -0.531441 0.038841
-0.360381 0.449156 0.310878
0.331281 -0.403424 -0.231599
-0.630671 -0.218101 -0.245540
-0.167667 0.020673 0.105500
0.650153 -0.662812 0.051602
-0.652590 0.158074 -0.242850
0.651467 -0.648353 0.019672
-0.414290 -0.399835 -0.243536
-0.568644 0.596638 -0.237958
0.053651 0.631064 -0.227692
-0.490815 -0.129702 0.099098
-0.141158 0.512717 0.314910
-0.704031 -0.461978 -0.161266
-0.707838 -0.508665 -0.086006
0.675317 0.324309 -0.220195
0.007989 0.010593 -0.233441
-0.078944 0.576432 0.111417
0.714938 0.419734 -0.186631
-0.519698 0.351239 0.307530
-0.638615 0.701730 -0.146305
0.641600 -0.727035 -0.057979
-0.470183 -0.433827 0.096971
0.653418 -0.636287 -0.061847
-0.180823 0.408748 0.159697
-0.516438 0.606830 -0.237038
-0.648242 0.281261 -0.241785
0.152151 0.264064 0.184071
0.418218 0.640628 0.119915
0.623658 -0.449478 -0.227279
0.354340 -0.398101 0.315500
-0.622996 0.131691 -0.242589
0.272792 -0.490829 0.313442
0.069300 0.445832 -0.228938
0.311722 0.131580 0.155789
0.565681 0.162638 -0.223261
-0.364461 0.691810 -0.233912
0.715272 0.478484 0.004515
-0.535661 -0.200695 -0.243874
-0.127322 0.154875 -0.234446
-0.175484 -0.238372 0.103281
0.216963 -0.061563 0.111008
-0.325904 -0.112331 -0.239793
-0.653851 0.433699 -0.138907
0.711036 0.342668 -0.215211
0.024724 0.440874 0.261653
0.693531 0.034546 -0.207333
-0.004411 0.026499 -0.233511
-0.034847 0.565380 0.112035
0.446037 0.445944 0.118787
-0.662408 0.299321 -0.076308
-0.053327 -0.035494 0.265015
-0.004966 0.393749 -0.230551
-0.150028 -0.342588 0.195515
-0.414526 -0.010652 0.306292
0.665565 -0.439817 -0.130002
-0.638775 0.207585 -0.242228
0.617577 0.255333 -0.221679
0.530078 -0.581058 -0.229844
0.118127 0.639161 0.115087
-0.134119 -0.002247 0.105853
0.143138 -0.098342 -0.232152
-0.642151 0.655656 -0.086253
0.130156 0.245886 -0.229578
0.711175 0.370845 -0.122196
-0.191293 0.560552 -0.232193
-0.499378 -0.393631 0.096827
-0.090400 0.327326 -0.232459
0.058219 0.055079 0.314411
-0.660450 0.346922 -0.029680
0.611232 0.542464 -0.219460
0.647141 -0.720836 0.034858
-0.376167 0.037833 0.307300
-0.648763 0.579234 0.061317
-0.318785 0.403847 0.211129
-0.645139 0.635172 0.031253
-0.528148 0.356320 0.298120
0.664253 -0.396707 0.110056
-0.025963 -0.690891 0.100251
-0.467743 -0.280285 0.098251
0.374318 0.188502 0.317073
-0.127909 0.604345 -0.230822
0.428646 -0.494784 -0.230775
0.514555 -0.611154 -0.230337
0.122325 0.071669 -0.231112
-0.386018 0.041660 0.307173
0.439527 -0.064051 0.114560
-0.711968 -0.539295 0.068021
0.243373 0.345289 0.142710
-0.515780 0.134937 -0.240842
-0.594529 0.535726 0.102813
0.282670 0.076778 -0.228497
-0.546664 -0.026102 0.102026
-0.103433 -0.670704 0.100942
0.515723 -0.567947 0.237473
-0.136404 -0.637396 0.100682
-0.530879 0.030208 0.304755
0.069658 0.449245 -0.228905
-0.113340 0.294930 0.108589
0.105549 -0.040342 0.314399
-0.284491 0.111319 0.104358
0.556420 0.239433 0.118890
0.518668 -0.533304 0.173959
0.153683 -0.212580 -0.232907
0.021604 0.363079 0.180291
-0.299178 -0.307027 -0.240938
-0.633402 -0.350205 0.095027
-0.180542 0.447987 0.283592
-0.593490 -0.494432 -0.247177
0.451618 -0.324842 0.112646
0.689422 -0.016532 -0.128586
0.648424 -0.691738 0.057822
-0.641311 -0.398795 -0.247171
-0.237842 -0.354585 0.101341
-0.518259 0.590516 0.104480
-0.189916 0.081648 -0.236043
0.516400 -0.010868 -0.225455
0.183920 -0.379826 0.312913
-0.041012 -0.481283 0.308483
0.520058 -0.280541 0.114103
-0.161356 -0.373803 -0.239266
0.552010 -0.290657 0.114534
-0.324686 0.277447 0.132250
0.493141 -0.008056 0.115873
-0.288118 0.649022 -0.233032
0.147356 0.450015 0.114027
-0.667967 -0.222624 -0.246175
0.555628 0.379221 -0.221672
0.499663 -0.644103 0.110837
-0.586363 0.568581 0.103210
-0.488934 0.056767 0.305643
-0.004793 -0.323410 -0.236346
0.643929 0.579395 0.123042
-0.071623 0.102049 -0.233979
0.113833 0.166912 0.316207
-0.183962 0.384482 0.273198
0.172533 0.538184 0.115144
0.506520 -0.476021 -0.229373
-0.532363 0.234708 0.128507
0.287305 -0.039239 -0.229361
-0.019579 -0.666950 0.102318
-0.667736 0.173438 -0.190021
0.138672 -0.282984 -0.233717
0.652831 -0.613314 0.058960
0.501721 -0.627303 0.111005
-0.551106 -0.049698 0.301529
-0.515274 0.545663 0.157504
0.308518 -0.224998 0.111157
0.651572 -0.700434 -0.175479
-0.037439 -0.210803 0.105719
-0.258125 -0.151841 0.102654
0.418479 0.209971 0.116438
0.222193 -0.364319 -0.233034
0.388093 -0.198129 -0.229028
-0.577050 0.659646 0.104095
-0.706341 -0.510155 -0.187419
0.175778 -0.242607 0.108884
0.237899 -0.058268 0.111371
0.035896 0.160199 0.180918
-0.423642 -0.483283 -0.244360
-0.323081 0.694470 0.108062
0.521838 -0.474104 0.184847
-0.521341 0.462885 0.247152
0.677763 -0.230825 -0.156174
-0.443113 0.615975 0.105892
-0.411666 0.372808 -0.237248
-0.225921 -0.579594 -0.241966
0.667811 -0.412322 -0.174558
0.641290 0.363127 -0.220427
-0.184779 0.004831 -0.236581
-0.080299 0.056983 0.273062
0.242909 -0.281435 -0.232031
-0.377368 -0.385061 -0.242824
-0.349716 0.596215 -0.234448
-0.684981 -0.086905 -0.026005
0.116616 -0.042017 0.264924
0.659110 0.637019 -0.217927
0.705482 0.328573 0.089981
0.238387 -0.420338 -0.233227
-0.324386 0.474833 0.311663
0.683799 -0.100503 -0.071825
0.539624 0.542898 0.121073
0.568792 -0.646791 -0.229754
0.487759 -0.261444 -0.227940
0.711855 0.364315 -0.189409
0.054601 -0.508706 -0.236891
-0.334221 0.151818 0.289263
-0.684302 -0.123063 -0.200344
0.503975 0.578356 0.120788
-0.164087 -0.475310 0.277226
0.099437 -0.554565 0.310144
-0.669483 0.202207 0.026096
0.386311 -0.278826 -0.229709
-0.279584 -0.031072 -0.238393
-0.475969 -0.239493 -0.243230
-0.078470 0.151590 0.107990
0.160267 0.589171 -0.226320
0.674208 0.569356 0.123447
-0.185099 -0.613394 0.100095
-0.101871 0.574186 0.111031
-0.289955 0.643296 -0.233108
0.594258 -0.616961 0.112574
0.623456 -0.391284 -0.226812
-0.086926 0.220011 0.108407
-0.646845 0.125201 -0.243024
0.092464 0.406561 0.112795
-0.477024 0.321185 -0.238714
-0.325998 0.635024 0.107925
0.688474 -0.024342 -0.096092
0.683511 -0.099369 -0.049219
0.264725 0.130623 0.318336
-0.313440 -0.225611 0.101170
-0.682253 -0.012377 0.068702
0.484684 -0.507589 0.316707
0.473321 0.502191 -0.221999
-0.661548 0.292948 -0.154513
-0.409079 -0.578280 -0.244895
-0.204802 -0.189695 0.103204
-0.130613 -0.017207 0.105789
0.689242 0.033718 0.064746
0.408425 0.303100 -0.224650
-0.451459 -0.441844 0.097207
-0.294054 -0.154686 0.102054
0.188600 0.163462 -0.229306
0.435378 0.203467 0.116656
0.117025 0.488347 0.113850
-0.007060 0.566254 -0.229191
-0.337410 0.054218 0.140679
-0.148133 0.216344 0.107395
-0.582349 -0.350278 0.095846
0.140347 0.110490 0.316177
-0.650151 0.523383 -0.051763
-0.247903 -0.360692 -0.240549
0.501802 0.590126 -0.220831
-0.502522 -0.258488 -0.243809
0.156144 -0.302203 -0.233592
-0.706217 -0.486914 -0.111240
-0.641160 0.703806 0.024382
-0.258431 0.189505 -0.236270
-0.229362 0.089988 0.105070
0.118397 0.600793 0.114781
-0.693048 -0.202719 0.072370
0.177867 0.296589 -0.228402
0.523826 -0.437606 0.189373
0.039267 -0.607259 0.103745
-0.317174 0.437374 0.229125
-0.164277 -0.495654 0.215801
-0.468608 0.072684 0.306098
0.189629 -0.055474 0.110619
-0.268752 -0.623751 0.098669
-0.184240 0.468510 -0.232824
0.483161 -0.080895 -0.226554
-0.390025 0.260413 -0.237809
0.322214 0.610042 0.118127
0.693340 0.043588 -0.162377
0.082715 -0.353804 -0.235187
0.383379 -0.028493 0.113947
0.173757 0.666469 0.112800
-0.548211 -0.029653 0.188377
0.069626 -0.185677 -0.234038
-0.240832 -0.293865 0.101783
-0.652505 0.486192 -0.035345
-0.389753 -0.618421 0.096770
0.044979 -0.582940 0.104034
0.579554 0.266347 -0.222200
-0.415109 0.201763 0.308000
-0.543870 -0.445960 -0.245988
-0.007271 -0.591670 -0.238554
-0.309969 -0.340412 0.100297
-0.156475 -0.384136 0.118880
-0.565518 -0.378412 -0.245790
-0.553514 0.532269 -0.238235
-0.654351 0.464153 0.003299
-0.701231 -0.432116 -0.232776
-0.258520 -0.613810 0.098913
0.704712 0.229109 -0.220471
-0.651991 0.499249 -0.021041
-0.702313 -0.377109 0.035592
-0.690821 -0.247852 -0.233707
-0.182167 0.417684 0.313484
-0.181610 0.388240 0.135968
0.280075 0.378004 0.131730
0.566867 -0.721282 -0.230162
0.458777 0.417737 0.235902
-0.352116 -0.567197 -0.243891
0.296796 -0.401567 0.314549
0.503947 0.369320 0.153581
-0.365131 -0.339931 0.099416
0.509403 -0.492627 0.317225
-0.265218 -0.180851 -0.239373
0.681105 -0.097982 -0.223515
0.633575 -0.369975 0.115202
0.540845 -0.512163 0.112564
0.347592 -0.371568 0.304282
0.583876 -0.627981 0.112318
0.158377 -0.138252 -0.232230
0.414176 0.394604 -0.223818
0.655143 -0.559330 0.105957
0.475063 0.590728 0.120424
0.682282 -0.167615 -0.217322
0.548380 -0.306809 -0.227334
-0.546703 -0.002074 0.191464
-0.271762 -0.509873 -0.242138
-0.711166 -0.593399 0.091814
0.694901 0.137027 0.075591
0.201550 -0.169231 0.109891
0.654306 -0.636043 -0.117888
-0.668501 0.213696 0.004670
-0.445083 -0.395525 0.097683
0.661488 -0.470436 0.020653
-0.707243 -0.475902 -0.005652
-0.154123 -0.652246 0.100278
0.673622 -0.007343 0.118776
-0.267244 0.295832 -0.235552
-0.341986 0.609095 0.107459
0.513560 -0.584558 0.119966
0.004887 -0.141260 -0.234718
-0.658302 0.034767 -0.243939
-0.428066 0.456276 -0.236836
-0.193111 -0.048517 0.104533
-0.660866 -0.002665 -0.244283
-0.641465 0.639998 -0.186906
0.637356 -0.167262 -0.224778
0.080094 0.040452 0.314644
0.488560 0.382961 0.291149
-0.155815 0.485767 0.314457
0.683904 0.534154 -0.218361
-0.629619 -0.578696 0.093241
0.474727 0.277377 0.186526
0.584596 0.317165 -0.221708
0.386978 0.345461 0.322035
0.694055 0.071134 -0.108543
-0.139138 0.467079 -0.232112
-0.464862 -0.483384 -0.245023
-0.397342 -0.517177 0.097466
-0.275478 -0.290809 0.101252
0.307439 0.412685 -0.225384
0.447092 -0.442663 -0.230057
-0.176431 -0.000356 0.105190
0.654472 -0.618189 -0.063938
-0.012657 0.559594 -0.229334
0.089423 -0.592863 0.104667
-0.024395 -0.379637 0.309571
0.312670 -0.412054 0.314718
-0.570606 -0.631304 -0.247916
-0.666209 0.237323 -0.056860
0.633229 -0.528759 -0.227766
-0.472959 0.122133 -0.240258
0.186161 0.582651 -0.225957
-0.347101 -0.109635 0.169365
0.001597 0.603331 -0.228752
-0.311064 0.551986 0.251922
-0.083248 -0.029025 -0.235225
0.630617 -0.045176 0.117780
0.359020 0.049247 0.114184
0.672156 -0.301992 -0.054112
-0.681010 -0.002743 0.023814
-0.234122 0.329858 0.106933
0.284133 0.018598 0.112735
0.689939 0.247213 -0.220583
0.447368 0.241798 -0.224520
0.704544 0.288020 0.003427
-0.314215 0.557077 0.110656
0.446307 -0.480107 0.316313
-0.585908 0.192028 -0.241506
-0.166215 0.310636 0.107867
0.715596 0.504297 0.077121
-0.710501 -0.582620 -0.182786
-0.573211 0.133122 -0.241778
0.656966 -0.262890 0.116443
-0.156297 -0.348007 0.238209
0.695030 0.077401 -0.148425
0.642190 -0.723973 -0.229200
0.641607 0.643053 -0.211268
0.577234 -0.448465 0.113663
-0.596277 0.450424 -0.239583
-0.424480 0.216535 -0.238717
-0.349088 -0.055358 -0.239705
-0.516540 0.561672 0.296615
0.410886 -0.674741 -0.232515
-0.693126 -0.226340 -0.008108
0.405759 0.031824 -0.226885
-0.281633 -0.126372 0.102482
-0.103850 -0.386081 -0.238442
-0.094169 -0.063026 -0.235675
-0.421354 -0.423520 0.097838
0.284966 -0.592575 -0.233871
-0.688807 -0.178701 -0.112726
0.505087 0.025099 -0.225345
-0.347506 -0.092977 0.255614
-0.057650 0.170882 -0.233199
-0.423657 -0.345440 0.098432
0.680800 -0.129206 0.016667
0.556484 0.373042 0.119971
-0.393151 -0.246077 0.099725
-0.661485 0.202981 -0.242630
0.703517 0.272644 0.013658
0.028071 0.493463 0.237267
0.316427 0.341975 0.320874
0.527004 -0.433852 0.112975
0.462628 0.376167 0.323497
0.216413 -0.681719 -0.235692
0.326032 0.420173 0.310444
-0.438898 0.484379 -0.236783
-0.139732 0.397106 -0.232687
-0.671281 -0.183044 0.095771
0.025915 -0.147359 -0.234430
0.699262 0.142880 -0.182925
0.480699 0.392151 0.276112
-0.662282 0.296332 -0.095179
0.242983 0.114120 -0.228832
-0.109676 -0.437033 -0.238948
0.521934 -0.062940 -0.225787
-0.380039 -0.309390 -0.242255
-0.180629 0.445522 0.280299
0.649038 -0.708547 -0.042374
-0.081534 0.057757 0.107182
-0.228964 -0.134593 -0.238417
-0.026239 -0.244931 0.105623
-0.538735 0.151764 0.237031
-0.683918 -0.047440 0.048634
0.381402 0.540754 -0.223162
-0.177793 0.448548 0.109347
0.717722 0.528386 0.027935
-0.182639 0.382338 0.180608
0.043243 0.230351 0.110580
-0.658308 0.395835 0.009912
-0.663848 0.301741 0.024810
-0.541648 0.092221 0.208465
0.041613 -0.247989 -0.234991
0.628336 0.633588 0.123230
-0.654026 0.492444 0.101508
-0.325431 0.146220 -0.237696
-0.080309 -0.006431 0.311690
0.677491 0.234192 0.120790
-0.715331 -0.599192 0.066999
-0.408623 0.647990 0.106704
0.685744 -0.073967 -0.100526
-0.683347 -0.044876 0.021312
0.028741 0.485137 0.164177
0.533120 0.335933 -0.222383
-0.042936 -0.199867 0.105719
0.657795 0.460793 0.122306
0.179962 -0.660414 -0.236105
-0.152037 -0.322490 -0.238702
-0.135366 0.550665 -0.231376
-0.319732 0.394195 0.236938
-0.093487 0.680997 -0.229650
0.112235 0.018909 -0.231700
0.023881 0.413698 0.217420
-0.664884 0.274952 -0.005678
0.604666 -0.006736 -0.224005
-0.218462 -0.135648 0.103421
0.203079 0.034927 0.218661
-0.572133 -0.592914 -0.247630
-0.631184 -0.568154 -0.248377
-0.658830 0.387245 0.012336
-0.652771 0.164766 0.098879
0.248833 -0.313915 0.109480
-0.548351 -0.183696 -0.243940
-0.296664 -0.602514 -0.243286
0.671466 -0.282194 0.061808
0.064616 0.011221 -0.232527
0.648479 0.395855 0.121632
0.665807 0.244836 -0.220990
0.203615 -0.155397 0.110036
-0.158698 -0.385453 0.256679
-0.133482 0.506975 -0.231699
-0.508949 -0.169296 -0.243191
0.644854 -0.725795 -0.216336
0.255543 0.081766 0.214600
-0.544463 0.647550 0.104520
0.018170 0.456486 0.317013
-0.675555 0.042627 -0.161847
-0.008517 -0.478375 -0.237658
-0.570470 -0.445886 -0.246415
-0.312714 -0.015849 -0.238802
-0.642175 0.620828 -0.210702
0.442228 0.403376 0.323389
-0.191638 -0.249753 -0.238749
-0.003838 0.125021 0.231231
-0.076816 -0.064569 -0.235409
0.425418 0.188547 -0.225303
-0.060403 -0.068371 0.106502
-0.003600 -0.091467 0.107227
0.454455 -0.653045 0.110039
-0.630749 0.194273 -0.242207
-0.317780 -0.509659 -0.242875
0.280568 0.078430 0.113161
-0.087322 -0.505760 -0.239144
-0.125495 -0.674504 -0.241121
0.041149 0.598652 0.113524
0.296003 0.117419 0.136671
-0.553674 0.478185 -0.238675
-0.686360 -0.156178 -0.188152
0.639275 -0.621008 0.113264
0.428233 0.449803 0.317371
0.429560 -0.501074 -0.230811
0.670646 -0.318700 -0.017657
-0.688425 -0.173869 -0.119763
0.173228 0.629088 0.115890
