0.067870 0.124459 0.120151
0.687496 -0.188539 0.029981
-0.034726 0.854542 0.007392
0.644891 0.217705 -0.259098
-0.669672 -0.292404 0.124223
0.187634 -0.922950 -0.166671
0.497774 -0.447866 0.011135
0.239117 0.650135 -0.170297
-0.371199 0.475240 -0.144683
-0.109670 -0.369170 0.277050
-0.222850 -0.660031 0.040637
0.562442 0.372263 0.113270
-0.138059 -0.077100 -0.235453
0.304372 -0.474529 -0.322588
-0.435801 -0.309969 -0.242257
-0.578859 -0.225852 0.245745
0.379650 -0.556739 -0.339322
0.306297 0.074140 -0.250975
0.400487 0.110316 0.091875
-0.699735 -0.101015 0.151645
0.307832 0.193198 0.275281
-0.198070 -0.668702 -0.177957
-0.391747 -0.538149 -0.193090
-0.438827 0.421780 0.199298
0.651184 0.395940 0.012675
-0.009496 -0.077727 -0.245749
-0.354402 -0.196218 -0.233845
0.536276 -0.195634 0.136527
0.330399 0.368950 0.338633
-0.077804 0.049896 -0.223629
0.288049 -0.487310 0.229999
0.320745 -0.140680 0.065380
0.318001 0.116839 -0.246319
-0.351177 -0.584713 0.057319
0.637656 -0.248440 -0.117603
0.331277 0.345762 -0.217431
-0.517887 -0.469445 0.007080
-0.432632 -0.284468 0.106428
0.068431 0.009010 0.194253
0.311694 -0.376330 -0.310325
-0.199483 -0.533125 0.208556
-0.583140 -0.365400 0.107800
0.045039 -0.451788 -0.299009
0.542100 -0.002587 -0.279745
0.358438 -0.248064 -0.297262
-0.356559 0.173334 -0.185336
0.690322 0.380489 -0.124901
0.155034 -0.909008 -0.120962
-0.881472 -0.148583 0.159862
-0.201553 0.090170 0.137072
-0.469960 0.501031 0.188347
-0.465414 -0.484676 -0.247926
0.467583 0.510461 0.117216
-0.280183 -0.471465 0.108837
0.026112 -0.628911 -0.320674
-0.132566 -0.213466 0.091875
0.378343 0.467422 0.140344
-0.164467 0.032762 -0.218985
-0.137183 -0.600927 -0.304039
-0.361140 -0.255617 0.104522
0.425043 -0.352901 -0.316266
-0.886053 -0.075816 -0.042730
0.540910 -0.147772 0.046960
-0.013891 0.602378 0.396520
0.170318 -0.777728 0.177351
0.192008 -0.497058 0.236354
0.318790 0.425977 0.347015
-0.021052 0.410923 0.300638
0.181763 -0.114021 -0.265692
0.426337 0.221648 -0.241218
0.386905 0.080062 -0.256604
-0.559150 -0.436261 -0.065221
0.096918 -0.598682 -0.322345
-0.580760 -0.213002 0.260379
-0.576885 -0.278959 -0.226991
0.053880 0.060003 0.118361
0.397712 0.386775 0.190337
-0.148219 -0.339236 0.284028
-0.269404 -0.543296 -0.285996
0.271412 -0.592948 0.030048
0.024933 0.723893 0.201969
-0.220216 -0.276450 -0.255001
0.077891 0.010760 0.104483
0.456776 -0.151658 0.253984
-0.124077 -0.520854 0.258354
0.258602 0.467833 0.343030
0.368511 -0.673000 -0.063024
-0.255442 0.774652 -0.114717
-0.674496 -0.348635 -0.201267
0.443893 -0.043788 0.068269
0.853932 0.151854 -0.284319
-0.020459 0.838012 0.097448
-0.686833 -0.005736 -0.182518
0.128880 0.655410 0.184753
-0.231628 0.519481 -0.149985
0.437325 -0.480637 -0.333950
0.100293 -0.493860 -0.308903
0.045922 -0.151010 -0.259738
-0.905052 -0.203308 -0.089519
0.469009 -0.333951 0.199047
-0.155637 -0.562601 0.210957
0.083758 -0.798287 -0.347408
0.836926 0.173479 0.065461
0.538409 -0.083433 -0.290027
-0.038474 0.570619 0.394319
0.600471 0.392652 -0.232685
0.525463 -0.166330 -0.299841
0.080539 0.728563 -0.147439
0.060837 -0.040870 0.306445
-0.614138 -0.065898 0.205783
-0.525598 -0.446803 -0.217942
-0.301894 -0.018872 0.338142
0.200286 0.009940 -0.250950
-0.088679 0.265541 -0.194558
-0.715520 -0.323444 -0.172790
-0.003340 -0.648835 0.085997
0.807792 0.303996 -0.260753
-0.386391 -0.210649 -0.233191
0.020337 0.812300 0.077633
-0.025983 0.042047 0.324189
-0.001511 0.168988 -0.214113
-0.149503 -0.709514 -0.070296
0.194364 0.703276 -0.015339
0.695020 0.371053 -0.043880
0.224577 0.488590 -0.190272
-0.697491 -0.292062 0.126478
-0.194197 0.671399 -0.133088
0.123763 -0.693455 0.216087
-0.696305 0.104798 0.178293
0.065120 0.790974 -0.032866
0.358758 0.445281 0.139004
0.249207 0.240373 0.172188
-0.931908 -0.128689 -0.110631
0.166988 0.454156 0.362761
0.428848 0.174441 0.098009
0.492365 0.017671 0.072457
0.942298 0.183835 0.058444
0.006861 -0.562564 -0.310466
0.055801 -0.015438 0.310172
0.878657 0.255245 -0.132171
0.367717 0.466889 -0.204483
0.253763 -0.687613 -0.000838
0.017450 0.681176 0.196976
0.425949 0.462462 -0.209688
0.392500 -0.452116 -0.326658
0.448308 0.534338 -0.024315
0.072801 0.001951 -0.241866
-0.153953 0.922052 0.163513
0.077308 -0.006822 0.301159
0.141777 0.738189 -0.012565
-0.518100 0.502958 -0.129386
-0.120337 -0.628512 -0.308986
-0.225063 0.944850 -0.089469
-0.242404 -0.521283 -0.285262
0.667444 0.275010 -0.253394
0.242985 -0.334401 0.253580
0.228856 0.583337 -0.178218
0.617361 -0.080118 0.049735
-0.368667 -0.428521 0.082504
0.247339 -0.241887 0.057974
0.027127 0.379016 0.297080
-0.279814 0.495922 0.196362
0.544928 0.461479 0.082670
0.067474 0.592501 -0.164198
0.210086 0.687227 0.056019
-0.069971 -0.577823 -0.306357
0.702010 0.257245 -0.258464
-0.391422 -0.358199 0.093510
-0.190745 0.960550 -0.015575
0.151846 -0.821266 -0.355823
0.470822 0.531941 -0.186974
-0.348249 0.337729 -0.164493
-0.342229 0.573005 0.211404
-0.146604 0.054785 0.201227
0.762573 0.145112 0.067658
0.342575 0.458867 -0.203534
-0.282158 -0.468525 0.087983
-0.647183 -0.235817 -0.215763
-0.047854 0.544581 0.391658
0.899649 0.234112 -0.040688
0.435590 -0.131247 0.173471
-0.581441 -0.433688 0.093242
-0.860903 -0.232466 -0.093815
0.479728 0.480988 0.134063
-0.077614 0.878856 0.063179
0.544514 0.466746 0.018465
0.151254 0.268632 0.132384
-0.189194 -0.004628 -0.221911
-0.538262 -0.456877 0.020497
0.193018 -0.822151 -0.359210
-0.411412 -0.457847 0.082064
-0.358065 -0.202632 0.228405
-0.496056 -0.470550 -0.166319
-0.575302 -0.151410 0.342528
0.211970 0.258150 0.263495
0.016412 -0.128557 0.233527
0.091001 -0.084861 0.253399
-0.180780 0.776039 0.225134
-0.272936 -0.485648 0.229012
-0.241523 0.088991 -0.205508
-0.614294 -0.363656 0.110503
-0.239836 -0.020688 -0.219988
-0.356367 -0.186152 0.118362
0.824837 0.286496 -0.264396
0.100573 -0.695386 -0.335284
0.382133 0.087139 0.090301
-0.180992 0.348543 0.169234
0.086346 0.763320 0.140501
0.821764 0.298524 -0.200016
-0.237523 0.262844 -0.183085
0.672992 0.286244 0.093236
0.116207 0.147183 0.119283
0.524653 -0.092106 0.055533
-0.041809 0.120931 -0.217197
0.259925 -0.142555 -0.275634
0.378036 -0.378200 -0.315841
0.085994 0.593081 -0.165594
0.264688 -0.537600 -0.327685
0.199764 0.036755 0.098200
-0.872261 -0.217513 -0.188582
0.355084 0.119915 -0.248863
0.619036 -0.152788 0.040097
-0.510096 0.174119 0.172566
0.673306 -0.111412 0.041197
-0.547047 0.361389 -0.145604
0.624938 -0.167903 -0.307950
-0.093894 0.159205 0.137548
0.006530 0.035384 -0.232227
0.071339 0.578425 0.386615
0.046913 -0.355138 0.059084
-0.015767 0.567553 -0.160848
-0.325833 0.497070 0.200169
0.088915 -0.544855 0.232114
0.133715 0.683471 -0.157562
-0.068623 -0.136699 0.173197
0.200517 0.520713 0.161899
-0.245033 -0.638444 -0.163632
-0.039424 0.776921 0.214018
0.121423 0.741442 0.120510
0.290719 -0.381359 0.243645
0.808093 0.082577 0.055862
0.263558 -0.131453 0.071130
0.078560 0.773702 0.073840
0.396757 0.073267 0.087325
-0.541976 -0.241443 0.242470
0.405638 0.077096 -0.258481
-0.755970 0.102518 -0.162865
-0.465854 -0.027279 0.325809
-0.090393 -0.265538 -0.263888
-0.034532 -0.595599 -0.311498
0.006366 -0.129583 0.226838
0.341894 -0.257855 0.255733
-0.541508 -0.312409 0.111424
0.525732 0.407294 0.120769
-0.101936 -0.322714 0.075152
0.402582 0.247698 -0.235923
0.532956 0.480348 -0.057201
-0.510735 0.115805 -0.180611
0.725778 0.048484 -0.287658
0.818989 0.158216 0.064890
-0.532647 0.470358 -0.132495
0.184427 -0.916244 -0.025234
0.466889 0.514351 0.073137
0.051096 0.363470 0.291095
-0.076153 0.467803 -0.169097
-0.230660 0.410641 0.181302
-0.349207 0.683348 0.196241
0.068421 0.290815 -0.203734
-0.661954 0.039147 -0.178624
0.304473 0.085410 -0.249356
-0.379536 0.330166 -0.162997
0.014865 -0.068385 0.306499
0.787358 0.156955 0.067238
-0.189031 -0.509567 0.264991
-0.110122 0.729829 -0.132125
-0.485161 -0.421800 0.092639
-0.869957 -0.147332 0.159111
0.166578 0.290297 0.240030
0.295849 0.338273 0.337366
-0.369328 -0.527801 -0.276030
0.697450 0.374982 -0.115314
-0.225371 0.546823 0.308183
0.347439 0.054225 0.088753
-0.212245 0.534159 0.358313
0.052234 -0.736616 -0.336837
-0.470539 -0.483799 -0.215169
-0.833218 0.035762 -0.165451
0.455806 0.178012 -0.249267
0.607446 0.242000 -0.252945
0.212422 -0.783100 -0.355644
-0.718137 -0.343099 0.121443
-0.601174 0.296659 -0.149770
-0.056195 -0.301485 0.074294
0.183604 -0.322017 0.052557
0.633105 -0.161591 -0.307773
0.071894 -0.100411 0.117219
0.053237 -0.000426 -0.240622
0.548383 0.476228 -0.136773
-0.660002 -0.381884 0.101930
-0.944183 -0.186755 0.033817
-0.399922 -0.360271 -0.251687
0.230070 0.686208 -0.102614
0.372122 -0.486897 0.016012
0.053321 0.006110 0.313188
0.156536 0.332839 -0.205238
0.164594 0.290863 0.249786
0.386408 -0.450222 0.019675
0.528822 -0.191451 0.146774
0.024880 -0.594380 0.040838
0.006909 -0.161106 0.087642
0.050777 0.613863 0.250368
-0.429255 0.449199 0.202124
-0.119752 -0.512602 0.259090
-0.851605 -0.238651 -0.094143
-0.913760 -0.213328 0.114223
0.357840 -0.005625 0.080098
0.411418 0.551830 0.067679
-0.513440 -0.092000 -0.207578
-0.268825 0.094277 -0.202647
-0.317476 0.268702 0.169634
-0.246736 -0.540272 -0.287402
-0.212030 -0.229663 -0.249531
0.371390 -0.123109 0.269409
-0.081688 -0.367697 0.245869
-0.019587 -0.405217 0.194862
0.241383 0.667139 0.045486
-0.444504 -0.517949 0.000433
0.209553 0.414336 -0.198790
0.759892 0.285826 0.086277
0.007938 0.123523 -0.220811
0.093786 0.746929 0.199512
0.754155 0.331734 -0.046237
0.271510 0.462663 0.298605
0.226649 0.682136 -0.020827
0.892968 0.241715 -0.081094
0.218629 -0.186231 0.067535
0.175264 0.711088 0.048310
-0.268330 -0.004281 0.337384
0.121029 -0.552784 -0.318257
-0.120396 0.475394 0.181012
-0.574821 0.346054 0.168212
-0.666877 -0.370088 0.009258
-0.007601 0.072825 0.267595
0.366656 -0.434337 0.230682
-0.787064 -0.283086 -0.077155
0.252954 0.475589 0.291785
0.519375 0.418745 0.122772
0.141772 0.664014 -0.160747
-0.705482 -0.175483 0.142361
0.141691 0.711635 -0.154512
-0.075383 -0.637504 0.031867
0.189905 0.570335 -0.176825
0.333796 0.507095 0.149072
-0.241795 0.037273 0.190942
-0.675893 -0.363157 -0.002430
-0.580800 -0.229930 0.192460
0.813379 0.284994 0.046105
-0.074083 0.700300 0.211389
0.458229 -0.474912 -0.305612
-0.582867 0.026107 0.158988
0.310231 -0.285295 -0.298302
-0.705800 -0.350454 0.091168
-0.454478 -0.249071 -0.232807
0.087956 0.725029 0.197110
-0.643523 -0.036840 0.155573
-0.704414 0.120432 0.180983
-0.052587 -0.752933 0.014958
0.245269 -0.648327 -0.340625
0.279272 0.432277 0.350979
0.513464 -0.187891 0.232954
0.318754 0.626010 -0.090302
0.321307 -0.445470 0.232829
-0.028040 -0.209046 -0.261452
0.128134 -0.594397 -0.324265
0.862256 0.268959 -0.167658
-0.321501 -0.603909 0.049237
0.421172 -0.524310 -0.334029
-0.026497 -0.425474 0.055717
0.444299 0.505851 -0.205471
-0.182974 0.074286 -0.212083
0.129885 -0.740444 0.209455
0.480220 -0.058887 -0.282193
0.915811 0.223502 -0.043097
0.405434 0.312766 0.117962
0.391055 0.293029 0.323884
0.363777 0.412051 0.156786
-0.394469 0.382088 0.190582
0.062842 0.420312 -0.186353
0.540355 -0.217753 0.170089
0.231388 -0.465617 0.237338
-0.044673 0.039809 0.325381
-0.373388 -0.006900 0.312831
0.177665 0.000514 0.095216
0.321147 -0.139272 -0.280069
-0.423523 -0.508138 -0.269153
0.701647 0.375633 -0.159760
-0.150443 0.053630 0.203871
-0.165358 0.500785 0.384715
0.022890 0.819233 -0.033497
-0.199801 -0.672401 -0.115491
-0.129153 0.485053 0.390331
0.438419 -0.136794 0.220520
0.383726 0.586141 -0.190156
-0.126572 -0.176401 0.096247
-0.210254 -0.525452 0.202419
-0.224367 0.864545 0.233333
-0.399221 -0.195770 0.125557
0.495841 -0.277717 0.138430
-0.226166 -0.103478 -0.231903
-0.360319 0.027326 0.141466
-0.029773 0.421457 0.240072
0.051086 0.087400 0.173607
-0.241163 -0.016327 0.333650
-0.230739 -0.330854 0.084320
0.395803 0.581196 -0.175935
0.319675 0.436362 0.223049
-0.420294 -0.215378 0.230537
0.275338 0.370444 0.343204
-0.326272 -0.000560 -0.210488
0.256960 0.238785 0.125988
0.026542 0.118410 -0.222958
0.070486 -0.017104 0.101427
-0.548928 -0.442583 -0.071735
-0.809432 -0.069141 -0.181071
-0.358238 0.569910 -0.133330
-0.342549 0.561239 -0.135711
0.329285 0.496659 0.148066
0.183922 -0.809136 -0.356785
0.127032 -0.736023 0.012807
0.270168 0.203965 0.114478
0.070239 0.073109 0.113246
0.304751 0.019350 -0.258018
-0.682544 -0.365230 0.081407
0.828495 0.093909 0.055723
-0.022068 0.320199 -0.192701
-0.892899 -0.218018 -0.004709
-0.529775 0.059152 -0.186509
0.080518 -0.267629 0.067861
0.181208 -0.261982 -0.285001
-0.238785 0.519525 0.196190
0.103560 0.004223 -0.244012
-0.159133 0.072419 -0.214221
-0.654284 0.265452 -0.149632
0.892018 0.237387 -0.017245
-0.377993 0.414287 -0.152116
-0.925880 -0.199560 0.041261
0.092878 0.273854 -0.207896
-0.459239 -0.168604 -0.221904
0.200960 0.167892 -0.230343
-0.191424 -0.565455 0.050511
0.481744 -0.103076 0.057507
-0.270875 0.259833 0.164772
0.212435 0.677653 0.159005
-0.365675 -0.571411 0.010782
0.375925 -0.088279 0.133451
-0.668648 0.167545 -0.161298
0.094680 -0.106890 0.236348
0.649633 0.405871 -0.101754
0.344344 0.224929 -0.234274
-0.317314 -0.372706 0.085725
0.252619 0.209763 -0.228970
-0.230968 -0.507531 0.149869
-0.198462 0.684801 0.214605
-0.656838 -0.114239 0.146507
0.434433 0.421005 0.129816
-0.156955 0.449416 0.180518
0.015107 0.423422 0.370808
0.773155 0.328561 -0.168716
-0.327318 -0.153976 -0.230472
-0.235288 -0.184739 -0.241807
-0.150966 0.048037 0.241292
-0.201255 -0.284030 0.088103
0.262992 -0.247250 -0.289572
-0.734138 0.130996 0.056690
-0.213255 -0.230271 -0.249513
0.075127 -0.716153 0.203247
0.133960 -0.878708 -0.329673
-0.187155 0.111065 0.138661
0.551859 -0.064619 0.056967
-0.855254 -0.068330 -0.177324
0.468182 -0.153669 0.181847
-0.467521 -0.214887 0.162847
0.155540 -0.274027 0.061063
-0.398906 0.538624 -0.134191
0.397645 -0.299756 0.245823
-0.682913 -0.349180 -0.121913
0.231907 -0.103800 -0.268339
-0.732492 -0.326627 0.014029
-0.602050 0.012447 0.158725
0.132010 -0.162005 -0.268016
-0.371271 -0.568483 0.021193
0.094947 -0.194777 0.076244
-0.035533 -0.253276 -0.266643
0.530033 0.428389 0.123187
-0.502470 -0.278202 -0.232805
-0.585776 0.055482 -0.182540
-0.308998 -0.197118 0.257655
-0.212142 0.799963 0.230755
0.523205 0.128026 0.084441
0.518788 -0.184338 0.141494
-0.607464 0.175728 -0.165088
0.765550 0.335563 -0.193428
0.529168 -0.014663 -0.280297
0.142181 -0.439188 -0.305079
-0.420824 -0.485502 -0.266406
-0.426257 0.392829 0.194513
0.095314 -0.196195 0.076029
0.610804 0.399894 -0.232559
0.130107 -0.848319 -0.357635
0.451846 0.534810 -0.060797
-0.391612 0.263680 0.174867
0.017137 0.611236 -0.157748
0.549721 -0.047796 0.059337
-0.289425 0.363190 -0.165836
-0.191697 -0.319592 0.135810
-0.307052 -0.301079 -0.251323
-0.005402 -0.783725 -0.338420
-0.185473 0.949831 0.077020
-0.517319 0.071832 0.159761
-0.376618 -0.548896 -0.184846
0.283704 -0.525218 -0.327576
0.440147 0.542259 -0.056098
0.902549 0.229327 -0.004056
0.382816 -0.605927 -0.242492
0.394160 -0.017300 -0.269916
0.032992 -0.644542 0.229697
-0.250507 -0.634274 -0.170236
-0.736238 -0.110901 0.153252
-0.210104 -0.663934 -0.135882
-0.498478 -0.478540 -0.042708
0.176102 0.280131 0.288959
-0.446493 0.502715 -0.135107
-0.821034 -0.190122 0.149627
0.831873 0.294390 -0.233717
0.428360 -0.501217 0.009671
0.590521 -0.043592 0.056645
-0.390284 0.338258 0.184517
0.293442 0.635828 0.000912
0.265298 0.653063 0.021052
-0.544654 -0.041887 -0.198543
-0.885076 -0.223644 0.000435
-0.039502 0.843350 0.192434
0.464427 0.485252 -0.209764
0.177602 0.286848 -0.212927
-0.690219 -0.001538 0.163901
-0.549811 0.345048 -0.147522
-0.077779 -0.136977 0.162620
0.035197 -0.028427 -0.242852
-0.790231 0.051671 -0.166794
-0.140223 0.008903 -0.224032
0.446316 0.544327 -0.135710
0.121856 -0.894138 -0.027133
-0.320219 -0.579701 -0.273229
-0.554817 0.325802 -0.149641
0.330296 0.184657 0.297524
-0.390563 0.608586 0.219898
0.173586 0.281938 0.132350
0.177894 0.548463 -0.178731
-0.579959 -0.232419 0.124941
-0.150147 -0.349064 -0.270066
-0.659687 0.253308 0.022269
0.061407 -0.114350 0.197963
-0.046174 0.434296 0.215840
0.380721 -0.246533 -0.298832
-0.746585 -0.038991 0.163480
-0.748439 -0.303011 -0.152756
-0.523505 0.332596 -0.151240
-0.349462 -0.563177 -0.234494
0.183860 0.281888 0.199675
-0.285524 -0.455239 0.105801
0.076140 -0.028474 0.306851
0.117097 -0.748625 0.002040
-0.435192 0.290170 -0.163806
0.635519 -0.157594 -0.307442
0.373508 0.283558 0.324039
0.209887 -0.700140 0.208370
-0.459194 -0.492664 -0.198616
0.291281 -0.489265 -0.323475
0.131021 0.543164 -0.175700
-0.724218 -0.056844 0.159368
-0.208817 -0.072735 0.323701
0.432020 0.334648 0.318441
-0.216840 -0.216847 -0.247473
-0.064818 -0.448098 0.263163
-0.348518 -0.453021 -0.267903
0.159733 0.488121 0.367781
-0.129266 -0.476061 -0.288336
0.166188 0.103253 0.109566
0.765742 0.098457 0.061304
-0.051411 -0.382114 0.171135
0.357732 0.598744 -0.074510
0.042779 0.366285 0.153776
-0.275350 -0.197983 0.309391
0.349639 0.576035 -0.188770
-0.593808 -0.418150 -0.000371
-0.582705 -0.047262 0.302864
-0.036532 0.673969 0.227436
-0.211233 -0.661783 -0.153845
0.034379 0.793098 0.204008
0.537425 -0.292022 -0.317232
0.493717 0.506105 -0.051340
-0.340332 0.026818 0.139811
-0.279083 0.755529 -0.115340
0.403567 0.567798 -0.070283
-0.313953 0.021486 0.200275
0.088352 -0.096298 0.157388
0.026567 0.015101 0.316489
-0.256123 -0.199383 0.103534
-0.135662 0.926897 -0.056008
-0.434891 0.050755 0.150455
0.160525 -0.901514 -0.264568
-0.092142 0.525550 -0.160274
-0.181337 -0.364450 -0.269600
-0.075423 -0.133962 -0.247867
-0.337922 0.473718 -0.147526
-0.398882 -0.163023 0.326992
0.872765 0.254254 -0.068780
-0.243391 0.320555 -0.175071
-0.012547 -0.409097 0.184279
-0.111070 -0.328650 0.075101
-0.134166 -0.113730 -0.240553
0.475565 -0.127739 -0.290829
0.195240 0.710913 -0.121116
-0.198365 0.279300 -0.184044
-0.668694 -0.053047 0.155453
0.000238 0.697521 0.200482
0.097746 0.544525 0.380083
0.495221 -0.171837 0.183203
0.422799 0.549715 -0.198025
0.490261 0.515183 -0.138443
-0.860407 -0.172327 -0.190518
-0.336519 -0.165093 0.321767
-0.068861 -0.767707 -0.014670
0.585938 0.261177 0.096873
0.606159 0.435348 -0.107378
0.561820 0.088280 -0.269426
0.180153 0.279979 0.256096
-0.316651 -0.466592 -0.272210
-0.460812 0.462548 0.206377
0.273222 -0.537491 -0.328349
-0.121919 0.698953 -0.135227
0.201116 -0.293460 -0.290700
0.470601 0.176529 -0.250636
0.215664 0.094071 -0.241167
0.048807 0.047683 0.318984
0.903138 0.229289 -0.008627
-0.230543 0.130769 0.144686
0.228321 -0.266763 -0.289370
-0.601345 -0.190601 -0.213491
0.216351 -0.040277 -0.258794
0.572865 0.449532 -0.003721
-0.582916 -0.204542 0.252707
-0.676481 -0.268287 -0.217682
-0.186122 0.848847 -0.110519
0.456737 0.043636 0.078684
-0.234831 0.221808 -0.188667
0.128254 0.752921 -0.085878
0.075356 -0.025229 0.190833
-0.028302 -0.751854 -0.332431
-0.182128 0.640960 -0.138029
-0.093275 -0.382859 -0.279004
-0.364827 -0.211506 0.279696
-0.598109 -0.069156 -0.197863
0.065422 -0.826612 -0.004055
0.124576 -0.267039 0.064438
-0.541922 -0.299190 0.113186
0.142136 0.554484 0.229161
0.360817 -0.406073 -0.318119
0.117885 -0.760086 -0.345123
-0.659339 0.212775 0.185180
0.291625 0.308292 0.333780
0.347641 0.223657 0.318259
-0.692175 -0.351739 -0.009388
0.712729 -0.055879 -0.300272
0.035460 -0.838260 -0.003526
0.401062 -0.315200 0.243532
-0.894304 -0.056960 -0.167492
0.011369 -0.807856 -0.187649
-0.558554 0.226584 0.183279
-0.402143 0.055058 0.148416
0.231216 0.499841 0.166597
0.071759 -0.540081 0.109289
0.094355 -0.771069 -0.344690
0.620301 0.126711 -0.269046
0.184036 -0.502320 -0.316662
0.080277 -0.343701 -0.287671
0.806272 0.304408 -0.142586
-0.052916 -0.759948 -0.251519
0.784793 0.092335 0.058990
-0.332285 0.300104 0.174918
-0.600391 -0.369552 0.108628
0.216294 -0.257589 -0.287214
0.190006 0.693714 0.145143
0.063045 0.610099 0.193375
0.064352 -0.118205 -0.256911
-0.353619 0.361566 0.184652
0.434878 0.536258 0.066390
0.539172 -0.168696 0.044361
0.477218 0.441615 0.129113
0.083849 0.546952 -0.171457
-0.185281 -0.363538 0.283794
-0.263035 0.525588 -0.146691
-0.247763 0.634405 0.211930
0.428467 -0.256217 -0.303892
0.147079 0.401511 0.357457
0.305365 -0.566624 0.010888
-0.076955 -0.071185 0.313428
-0.089283 0.716939 0.210134
0.069339 -0.128010 -0.258590
0.060376 0.800799 -0.118501
0.206972 -0.373599 0.251314
-0.432915 -0.114464 0.336048
0.179207 0.165140 0.116627
-0.069594 -0.127592 0.109784
-0.266938 -0.485551 0.176218
0.356535 0.115357 -0.249575
0.397287 -0.620668 -0.096385
-0.000539 -0.061560 0.308615
-0.459454 -0.505243 -0.034552
-0.094400 0.893984 0.012810
-0.349613 -0.578639 -0.034266
-0.129631 0.115008 0.134606
-0.026564 0.421429 0.212855
0.006249 0.826666 0.013893
0.037512 -0.111264 0.144369
0.106232 -0.881283 -0.058243
-0.287487 0.365047 0.179854
-0.231630 -0.659825 -0.003748
-0.295495 0.410424 -0.159176
0.279729 -0.366628 0.246445
-0.312642 0.283695 -0.174390
-0.488254 -0.487786 -0.011624
0.145101 0.306798 0.212315
0.065673 0.258951 -0.207684
0.330013 0.435889 0.140275
-0.182494 0.160003 0.144692
-0.819643 -0.201863 0.147981
-0.076063 -0.118516 -0.245796
-0.625335 -0.217361 -0.215085
-0.284114 -0.606001 -0.245158
-0.506721 0.315912 -0.154756
0.144619 0.736323 -0.012987
0.294037 0.174932 0.108784
0.354050 -0.232348 0.258104
-0.016424 -0.063937 -0.243395
-0.221307 -0.517232 0.191660
-0.928367 -0.183727 -0.141064
-0.278086 -0.218364 0.102796
0.629934 0.184044 0.083289
0.115503 -0.294502 -0.284035
-0.063681 0.316567 0.155731
-0.094054 0.897859 -0.040014
0.485093 0.306016 -0.234850
0.583109 -0.125098 -0.299028
-0.060752 0.873602 -0.014140
0.396734 0.377205 0.321865
0.914370 0.234216 -0.168543
0.278817 0.215534 0.237286
-0.382518 -0.152692 -0.225918
0.303273 -0.094302 -0.272767
0.661790 -0.019193 0.054174
-0.246350 -0.495563 0.271377
0.287839 0.637088 0.032866
0.553525 -0.121583 -0.296218
0.529252 -0.201275 -0.304713
-0.186314 0.559138 0.404563
0.170875 0.723090 -0.068385
-0.579089 -0.366344 -0.238246
-0.528953 -0.454585 -0.088997
0.222160 0.535371 -0.183961
0.217049 0.039083 0.097132
-0.488382 -0.131116 -0.214685
-0.805228 -0.279320 0.030496
0.293598 0.445051 0.335365
-0.684938 -0.360312 0.038707
-0.537693 -0.360107 0.104882
0.093345 0.345688 0.156773
0.185271 -0.583719 0.225554
-0.210723 -0.474932 0.271245
-0.013705 0.659675 0.215155
-0.315460 -0.604732 0.007909
-0.052279 -0.466820 -0.293244
-0.037979 0.419061 0.341421
0.008663 0.642610 0.242467
-0.773975 -0.210684 0.143199
0.113214 0.744448 0.152386
-0.413469 0.108520 0.156309
0.121906 -0.714783 -0.339517
0.042277 0.066203 0.321925
0.644705 0.404721 -0.234621
0.441042 0.226378 0.103834
0.060588 -0.326750 0.061711
0.103374 -0.400367 -0.296918
0.474312 -0.043868 0.065842
-0.159290 -0.660579 0.035515
0.045207 0.797642 0.052487
-0.092839 0.818772 0.223736
0.549750 -0.209467 0.194106
0.529868 -0.005932 -0.279211
0.382410 -0.152066 -0.286610
-0.330658 0.641902 0.219496
0.613122 0.422853 -0.006454
0.191348 0.281279 0.143171
0.345879 0.518853 -0.195951
0.337082 -0.666531 -0.004700
0.346639 0.325207 -0.221340
-0.545850 -0.446198 -0.051687
0.753913 0.279504 0.085925
0.009262 -0.474714 -0.299166
-0.403093 -0.201111 0.114984
0.226468 -0.477279 -0.316758
-0.197743 -0.662767 0.038284
0.131958 -0.507034 -0.313141
0.928171 0.212657 -0.009794
0.475068 -0.081757 0.060826
0.415254 0.338146 0.203041
0.206364 -0.021310 0.090081
0.894992 0.242568 -0.109460
0.161753 -0.001206 -0.249346
0.104099 0.582141 0.200231
0.738975 0.336654 0.020922
-0.463761 0.141043 -0.181042
0.085913 0.761703 0.165023
-0.204825 -0.029694 -0.223947
0.230786 0.334518 -0.210918
0.549959 -0.363642 -0.191600
0.255877 0.503179 -0.190850
-0.123200 -0.335626 0.190013
-0.099790 0.826837 0.225343
-0.035226 -0.730336 -0.329067
0.098651 -0.094140 0.089113
-0.130891 0.567210 -0.151746
0.709334 0.345246 -0.247535
-0.157986 -0.316393 0.241528
-0.261767 0.452370 -0.156369
0.099662 -0.322129 -0.286390
0.211912 -0.421865 -0.308354
-0.230701 0.486397 -0.154387
0.235041 0.212671 -0.227193
-0.470779 -0.438903 0.089259
-0.667764 0.078596 0.172598
-0.042786 0.764580 0.212671
0.004798 -0.656782 0.043829
-0.692600 -0.103725 0.150724
-0.108681 -0.586396 0.199033
0.089198 -0.673523 -0.331521
-0.106185 -0.572554 -0.302791
0.078339 -0.339593 -0.286980
0.439661 0.401503 -0.218751
0.666195 0.113045 0.071121
0.000833 -0.130572 0.226038
0.398175 -0.105135 0.159080
0.238130 0.217058 -0.226865
-0.119046 0.911043 0.005154
-0.730409 -0.333160 0.080167
0.536819 -0.265899 -0.313767
-0.143559 -0.082146 0.317286
0.674022 0.389816 -0.104810
0.877627 0.241743 0.050394
0.740610 -0.128560 0.033607
-0.388829 0.286991 -0.167906
-0.620146 -0.109591 0.144200
-0.809816 0.033742 -0.015728
0.541619 0.452655 0.125440
-0.638956 0.017506 -0.183282
0.235266 -0.397654 0.245919
-0.050667 0.435644 0.377633
-0.648203 0.179643 0.184261
-0.548955 -0.019006 0.156201
0.452728 -0.016144 -0.274418
0.066482 0.363257 0.161598
0.171497 -0.923671 -0.073800
-0.051739 0.092901 0.125526
0.213926 0.689158 -0.001827
0.406129 -0.095359 0.064524
0.358774 0.298541 -0.225792
-0.294100 -0.196692 0.275050
0.142495 0.731723 0.064458
-0.552891 0.207454 -0.165274
-0.741981 -0.181974 0.144412
-0.544806 -0.427594 0.096619
0.123631 -0.172298 -0.268696
-0.669153 0.075881 -0.173247
-0.159855 0.511068 0.205131
0.851814 0.134723 0.059209
-0.184096 -0.168175 0.230482
0.230099 0.000176 -0.254595
0.200218 -0.498669 0.235491
-0.025379 0.144441 0.130174
-0.328921 -0.040776 -0.215538
-0.248417 0.674725 -0.128345
-0.379903 -0.338624 0.095155
-0.308479 -0.373381 0.084934
0.077238 -0.007429 0.297419
-0.366332 0.444140 -0.149138
0.177556 -0.918519 -0.192151
0.147727 0.368802 -0.199834
-0.087858 0.761633 -0.129734
0.327568 -0.043030 -0.267991
0.049201 0.259927 0.139354
0.018558 -0.577313 -0.313324
0.720652 0.110474 0.066458
0.249993 0.135988 0.107189
-0.126594 0.477014 0.181716
-0.224139 0.512923 0.194163
-0.477227 -0.039757 -0.203621
-0.063584 0.745997 0.211893
0.340225 0.159798 0.103135
0.050399 0.682578 0.194542
-0.284875 -0.189221 0.314508
-0.044407 -0.133545 0.095325
0.451002 0.529664 0.012663
0.147688 0.040168 0.102784
0.405214 0.163114 0.098405
0.107512 0.323244 0.323772
0.398015 -0.103699 0.141991
-0.182540 -0.038440 -0.226862
-0.933180 -0.195032 0.144861
-0.201239 0.313031 -0.179404
-0.574080 0.195830 0.180490
0.628408 -0.041797 -0.291731
-0.266260 -0.619132 -0.229659
-0.058640 0.409718 -0.178086
-0.004932 0.399254 0.312236
0.704703 0.355309 0.075458
-0.359786 -0.267818 0.102818
0.263896 0.052851 -0.250391
0.710405 0.074526 0.062570
0.554044 0.477187 -0.197759
-0.457618 -0.491954 -0.221302
-0.338764 -0.187399 0.150848
0.217710 -0.646099 0.214817
-0.671391 -0.157071 0.142061
-0.525304 0.464979 -0.133782
0.517746 -0.038181 0.063135
0.190682 -0.861627 -0.364188
-0.197772 -0.154250 0.116914
0.016126 0.824437 -0.042318
0.438081 -0.049992 -0.277681
-0.202509 -0.160638 0.311703
-0.310464 0.361031 -0.164447
-0.401956 -0.209909 0.218228
0.029319 0.618057 0.380838
-0.084856 -0.596370 0.038000
0.595120 -0.168992 -0.305724
0.075061 0.350506 0.251929
0.107910 0.670330 0.188370
-0.641300 -0.265578 -0.220123
0.065111 0.329811 -0.198370
-0.100942 0.145494 0.136315
-0.891426 -0.228868 0.122216
-0.225415 0.441562 0.184930
-0.320356 0.428329 0.190742
-0.363695 0.646305 -0.122904
-0.563095 -0.113207 -0.206406
0.812862 0.261895 0.078938
0.716309 -0.095796 0.039823
-0.363276 0.579446 0.213918
0.105272 0.192248 -0.219555
-0.190311 -0.161037 0.173351
0.327968 -0.309858 0.250038
-0.138619 0.920247 0.054955
-0.054816 -0.372691 0.079162
-0.063917 -0.139224 0.196818
0.247492 -0.495969 -0.320873
0.281761 0.422211 -0.203497
-0.149750 0.054916 0.196046
0.672858 0.197364 0.081621
0.154769 0.077546 0.107111
-0.244511 -0.000617 -0.216991
0.037964 0.206761 -0.212309
-0.097234 0.888800 0.103863
0.278299 -0.179288 0.063702
0.355335 0.586866 0.098916
0.190513 -0.382066 0.201497
0.046548 -0.838065 -0.101332
0.169098 -0.617655 -0.330562
-0.438221 0.619679 -0.090172
0.253875 0.453247 -0.197222
-0.282318 0.032284 0.169753
0.380175 0.007088 -0.265615
0.506518 0.077350 0.079139
-0.152241 0.252279 -0.191243
0.569196 0.031455 -0.277445
0.523729 -0.251307 0.034783
-0.104419 0.474815 0.195109
-0.520747 0.174072 0.173406
-0.032367 -0.547610 0.040208
-0.235725 -0.434626 0.278504
0.221646 -0.699553 0.207513
0.286157 -0.617261 0.005791
-0.149032 0.513955 -0.157270
0.425833 0.359980 0.293392
0.029770 0.797018 0.193182
0.643938 0.396480 0.068002
-0.135520 -0.353097 0.281206
0.025767 0.817080 -0.030525
-0.009563 0.446660 0.375808
0.357511 0.377766 -0.215329
0.137834 -0.693120 0.215013
0.579156 -0.093361 0.051038
0.496517 -0.070107 -0.284955
0.297297 0.009827 0.086929
-0.643485 0.188945 0.185103
0.751788 0.327877 0.023725
-0.402931 0.528814 -0.135155
-0.159765 0.196700 -0.197915
-0.527960 -0.236498 0.227851
-0.097243 0.882514 0.184812
0.342717 -0.564000 -0.337338
-0.330454 -0.579726 -0.184945
-0.327214 -0.576694 0.059829
0.663848 0.382697 0.074215
0.063083 -0.411747 0.050395
-0.073947 -0.001765 -0.230693
0.769761 0.280143 0.084749
0.526018 -0.083957 -0.289111
-0.058672 0.442708 0.215036
-0.432212 -0.499786 -0.267370
0.779051 0.230411 -0.268095
0.000369 0.093645 0.136507
-0.057300 -0.534331 0.043926
0.344665 -0.232200 -0.294093
-0.565819 -0.238764 0.330349
-0.437459 -0.221960 0.252022
-0.717638 -0.142041 0.147702
-0.185680 -0.539698 0.174500
0.486830 -0.272148 0.061774
0.263207 -0.114230 0.073411
0.416772 -0.038572 0.071106
-0.159360 0.919557 0.242089
0.468862 -0.477594 -0.230587
0.298145 0.629760 0.038561
0.311423 0.193667 0.238380
0.149683 0.635505 0.180496
-0.303385 0.215657 -0.184025
0.104535 -0.281749 0.064106
-0.265178 0.272902 0.166028
0.552838 -0.328540 0.022368
-0.573426 -0.438611 0.087706
-0.161520 0.052229 0.198333
0.153011 0.315813 -0.207185
0.214869 0.688188 0.002549
-0.352498 0.232689 -0.177895
0.053467 0.239598 0.136356
0.552496 0.259460 0.099306
-0.550007 -0.110542 0.345864
0.266711 -0.588561 -0.334511
-0.787468 0.046771 0.067901
0.515712 -0.180043 0.112669
0.439397 -0.134008 0.176272
-0.275674 0.175889 0.154173
-0.368545 0.263944 -0.172532
-0.390954 -0.222724 0.111193
0.046079 0.617471 0.244340
-0.146177 0.447805 -0.166150
0.842875 0.267266 -0.268345
-0.262395 -0.512768 -0.282560
-0.175086 -0.371718 0.281914
-0.361275 0.592070 0.215411
0.075501 -0.363866 0.055672
-0.481649 -0.235634 0.285054
-0.463702 -0.494166 -0.140558
0.857560 0.267491 -0.108407
0.332922 0.226751 0.319833
-0.765775 -0.019941 0.167497
0.400421 -0.598088 -0.166989
0.232925 -0.644436 0.213826
0.167270 0.072460 -0.240149
-0.196677 -0.384711 0.281930
0.509414 0.377748 0.118201
0.165557 0.708244 0.168316
-0.544185 -0.190522 0.334940
-0.408703 -0.531655 -0.130911
-0.392523 -0.000607 0.243864
0.064953 0.781305 0.092963
-0.238705 -0.636364 -0.244775
0.389520 -0.432248 0.021778
-0.066269 -0.547819 -0.302727
0.150892 0.306898 0.161255
0.443744 0.229004 0.103962
0.154659 0.209072 -0.221278
0.565887 0.007265 -0.280346
0.569957 -0.247083 -0.313939
0.940717 0.198820 0.060406
0.094820 -0.353609 0.055478
-0.028419 0.699636 -0.142566
-0.173710 0.446710 0.181496
-0.148590 0.465768 -0.163609
0.523342 0.196477 -0.252217
-0.446296 -0.383831 -0.251084
0.283975 -0.447606 0.235516
0.444539 -0.312347 -0.312511
0.051124 0.604065 0.373452
-0.678868 -0.074903 -0.192198
0.182404 -0.864824 -0.363949
-0.326662 0.143000 -0.191679
-0.260586 0.246342 -0.183411
-0.084432 0.879403 0.114733
0.243447 0.408046 -0.202306
-0.757849 0.037287 0.174353
0.292126 0.329246 -0.216481
0.330887 -0.343111 -0.307505
0.143086 0.734429 0.024558
-0.044265 0.033450 -0.228445
-0.263873 -0.482573 0.111567
0.551869 0.467642 -0.056268
-0.072953 0.222496 -0.201438
-0.394031 -0.396629 0.088690
-0.663934 -0.099824 -0.196644
-0.063886 0.434173 0.378491
0.505632 -0.293401 -0.314887
0.607942 -0.103457 0.047431
-0.182326 -0.400800 0.278686
-0.166076 -0.502322 -0.288846
-0.143003 -0.607053 0.041223
0.035836 -0.539815 0.035809
-0.211401 0.873929 0.240371
-0.315225 0.463669 0.194957
0.196692 0.510155 0.330606
-0.836451 -0.144696 0.156794
0.441499 -0.281696 0.244701
0.123580 0.489416 -0.182139
0.454239 0.184547 -0.248287
0.409506 0.146873 -0.249661
0.513077 -0.430565 0.012182
0.545087 0.481111 -0.171277
0.376830 0.571190 0.115857
-0.436155 0.429854 -0.145459
-0.290527 -0.449915 0.073497
0.084983 -0.423147 0.047164
0.066363 -0.223480 -0.270841
-0.097600 -0.718722 -0.322592
-0.046915 0.078060 0.178349
-0.145240 -0.577778 0.045230
-0.642666 0.034060 0.164779
-0.392757 0.118312 0.155944
-0.114764 -0.613342 0.038156
-0.521889 -0.362900 0.103261
0.637872 0.172828 0.081191
0.282605 -0.659753 -0.345086
0.296839 0.639637 -0.077288
-0.246009 0.793515 0.232602
0.163859 -0.035010 0.091666
0.853864 0.088209 0.052962
0.184069 0.674593 0.182877
0.049476 0.082711 0.124231
-0.381732 -0.549195 -0.137052
-0.668556 -0.033694 -0.187627
-0.020415 0.117257 -0.219378
0.057842 -0.508765 -0.307479
-0.539414 -0.027758 -0.197111
-0.187892 0.280728 0.160912
0.137648 -0.756061 0.179363
0.432253 0.451787 -0.211585
0.790202 0.150471 0.066164
-0.345744 -0.010561 0.342713
-0.153807 -0.143488 0.102716
-0.448648 0.513224 -0.133562
-0.942145 -0.181674 0.037587
0.043983 0.032159 0.317337
0.609554 0.175241 0.083757
-0.159243 -0.554329 0.135528
-0.152081 -0.419668 0.273815
-0.443508 -0.222050 0.244396
-0.374623 -0.391482 -0.257779
0.824275 0.264998 0.078437
0.496449 0.370153 -0.227364
0.499207 0.178728 0.092980
-0.022503 0.856164 -0.118505
-0.538715 0.371049 -0.145002
-0.347475 0.623441 0.218418
-0.089383 0.216536 0.144689
-0.008527 -0.579105 -0.311407
-0.016813 0.593725 -0.157341
0.573113 0.359373 0.110736
0.615812 0.229225 -0.255280
0.401068 0.008142 -0.267137
0.582866 0.085398 0.074125
-0.071064 0.257330 -0.197032
-0.583545 0.281976 0.192510
0.066530 -0.597681 -0.319800
-0.493417 -0.032969 0.327054
0.485000 0.520632 -0.163319
-0.745175 0.102444 0.103126
-0.067318 -0.141770 0.209549
-0.057111 -0.471215 0.054361
-0.217934 0.198911 -0.193004
0.409231 0.371572 0.286928
-0.200153 0.035688 -0.215767
0.533589 0.479503 -0.051770
-0.312087 -0.590680 -0.201859
-0.054095 0.608752 -0.152414
0.242706 0.480824 0.312512
0.598229 0.256074 -0.250372
-0.385121 0.059646 -0.197937
-0.338334 0.513713 0.203339
-0.506334 0.010022 0.150803
0.327304 -0.306236 -0.302397
0.184534 -0.847897 -0.361904
-0.322470 0.349333 -0.165024
0.188740 0.704575 0.016292
0.219268 0.128839 -0.236906
0.473132 -0.394503 0.020072
-0.172619 -0.278980 -0.259113
-0.495021 0.130619 -0.179922
0.125164 -0.735194 0.018193
0.199539 0.067883 -0.243311
-0.221021 -0.645405 -0.280440
-0.565301 -0.239876 0.330162
-0.393722 0.584249 -0.128635
-0.101673 0.629613 -0.145905
0.605194 -0.284062 -0.172850
0.608777 0.307361 0.101100
0.475106 0.510685 0.049676
-0.946426 -0.178003 -0.059508
0.440103 -0.230513 -0.301454
0.025021 -0.121706 0.198547
0.165271 0.541164 0.201702
-0.328146 0.346322 -0.164966
0.050432 -0.517344 0.037588
0.103621 -0.435818 0.044026
0.005264 0.462137 -0.176307
0.001540 0.627018 0.398517
-0.867969 -0.229421 -0.072259
-0.514575 0.174339 0.172951
0.008447 -0.781869 0.006324
-0.165662 0.501008 0.384462
0.407277 -0.565444 0.002945
-0.300390 -0.437308 0.075930
0.185300 -0.356168 -0.297646
0.036533 0.118913 -0.223686
0.085290 0.588008 0.286406
-0.531400 0.127786 -0.177403
-0.152309 -0.470309 0.267209
0.666248 0.392418 -0.071473
-0.516374 -0.274930 -0.231272
0.947679 0.186801 0.032968
-0.388392 -0.140626 -0.223873
-0.107864 0.722619 0.214574
0.569701 -0.297666 -0.320535
-0.387695 -0.218113 0.111537
-0.578876 -0.423945 -0.054150
-0.114933 0.899663 0.116214
-0.408391 -0.399629 -0.256162
-0.158344 -0.375382 0.280105
-0.019177 -0.193736 0.085447
-0.206538 0.485229 0.189142
-0.068835 0.087424 -0.219433
0.377940 -0.581765 0.003141
0.241054 -0.549427 0.225607
-0.172959 0.931488 0.205457
0.287100 -0.003676 -0.259628
0.502827 0.125122 0.085680
-0.622572 -0.385507 -0.173127
-0.021224 -0.798639 -0.026115
0.489269 0.490141 -0.211098
-0.242169 -0.187749 -0.241654
0.416854 -0.144491 -0.288356
0.034675 -0.378424 0.057011
-0.654383 -0.179884 -0.207875
-0.081658 0.878788 0.098816
0.528028 0.190254 0.092198
0.029080 0.232855 -0.208190
0.532089 0.111335 0.081552
-0.651509 -0.159402 -0.205424
-0.319260 -0.350020 -0.256754
0.287991 0.647123 -0.097554
-0.142566 0.716355 -0.131310
0.251234 -0.061540 -0.264347
-0.480029 0.167330 -0.176312
0.580235 -0.173508 0.040469
0.142550 0.312102 0.165993
0.424443 -0.479700 -0.332804
0.470792 0.522003 -0.205463
0.057534 -0.689711 0.221839
0.066479 0.360067 0.202668
0.176171 -0.767499 -0.005122
-0.499780 -0.202459 0.329850
0.079949 0.789303 -0.139447
-0.145306 -0.637393 0.037437
-0.600005 -0.387336 0.106271
-0.181148 0.354080 -0.175631
-0.753979 0.002428 0.169486
0.059203 -0.834206 -0.259725
-0.458028 -0.511227 0.030179
0.662020 0.189895 -0.264096
-0.126421 0.485997 0.240340
-0.612862 -0.281852 0.121090
-0.809724 -0.262667 -0.145104
0.098410 0.219744 -0.215413
-0.667327 0.086004 -0.172068
0.200581 0.710244 -0.158420
-0.401940 0.345817 -0.159169
0.666582 -0.138679 0.038165
-0.030406 0.841507 0.137975
-0.220310 -0.154666 -0.239064
-0.628213 0.178573 0.182533
-0.356394 0.348475 0.183161
-0.197270 0.433467 -0.163966
-0.610049 -0.411130 0.048890
0.166137 0.730981 -0.129191
-0.430026 -0.092175 0.338734
0.209709 -0.735739 -0.349234
-0.014348 0.422826 0.373071
-0.214359 -0.627261 -0.301352
-0.607179 0.124850 0.173835
-0.294755 -0.370023 0.084283
0.715183 0.356115 -0.024977
0.087462 -0.073187 0.232048
-0.161703 0.206001 -0.196544
-0.483406 -0.476287 -0.201237
-0.555178 -0.259345 -0.226150
0.064023 0.355322 0.284825
-0.264805 0.720972 -0.120994
-0.206900 -0.455473 -0.279475
-0.671493 -0.007538 -0.183973
-0.128615 -0.066817 -0.234858
-0.239645 -0.655411 0.008344
-0.696808 -0.305229 0.124701
0.119333 -0.488960 -0.309774
-0.247522 0.603317 0.207844
0.114511 -0.825326 -0.353388
0.042005 -0.360096 -0.286775
0.684966 0.259567 -0.256806
0.658086 0.144958 -0.269661
-0.331329 -0.426828 0.079759
0.396408 -0.461240 -0.328162
-0.069038 0.055152 0.304391
0.309269 0.619904 0.069763
0.567208 -0.329242 0.021134
0.261296 -0.610272 0.037524
0.056601 -0.730186 -0.336343
0.163809 -0.511110 0.236756
0.821989 0.281581 0.016013
-0.279551 0.012843 0.306062
-0.195908 0.967333 -0.058470
-0.274230 0.687978 -0.124561
-0.110543 -0.577925 0.249814
0.334919 -0.495177 0.225246
0.274258 -0.362513 0.247418
-0.167639 -0.370966 -0.271541
0.487606 -0.479601 -0.109127
0.923365 0.229369 -0.183500
0.247003 0.378385 -0.206468
0.095491 -0.866619 -0.154591
-0.042709 -0.153054 -0.252963
-0.115301 0.655473 0.411522
-0.662299 -0.365811 -0.085113
-0.199610 -0.598599 0.046826
0.235554 0.471695 -0.193354
-0.053040 0.441152 -0.174420
0.603299 -0.178634 0.037966
0.165532 0.723559 -0.028499
-0.015517 0.123902 -0.218897
-0.160104 -0.059243 -0.231366
-0.726395 0.039554 -0.173451
0.314293 0.437762 0.251285
-0.035692 -0.125546 0.142021
-0.400322 -0.198051 0.139614
-0.410761 -0.434667 0.085044
-0.346639 -0.581875 -0.018204
0.564522 -0.262123 0.030127
-0.153603 -0.202529 -0.250624
0.361773 -0.619226 -0.000474
-0.731933 -0.233544 -0.208732
-0.046249 -0.179189 0.089501
-0.308765 -0.429316 0.077641
0.276294 0.592979 0.164875
0.412309 -0.149531 0.264308
-0.387608 -0.191921 0.115136
0.635654 0.420895 -0.174915
0.821429 0.301720 -0.238253
-0.659945 0.248226 0.040874
-0.299656 -0.614216 -0.005894
0.031009 -0.453494 -0.298118
0.306859 0.047623 -0.254488
0.074053 -0.338152 -0.286451
0.187098 -0.109854 -0.265571
-0.424154 -0.225697 -0.232159
0.252922 -0.064955 -0.264928
0.089086 -0.229654 0.072147
-0.380439 -0.030117 0.342911
0.370738 -0.111173 0.218111
0.183340 0.354309 -0.204559
-0.309240 0.541258 0.204630
-0.122785 -0.702961 0.027071
0.425729 -0.297395 -0.309061
0.176882 -0.734412 0.018867
0.242621 -0.515773 0.229885
-0.266183 -0.542247 -0.286115
-0.511131 -0.238544 0.326032
0.663685 0.040434 -0.283778
-0.138468 0.772760 0.221343
0.440807 -0.184522 -0.295495
-0.469018 -0.254240 -0.232328
-0.621047 -0.381169 0.108749
-0.237373 -0.246074 0.095937
0.215725 -0.042725 0.086536
-0.067553 0.123309 0.130760
-0.093465 -0.146136 0.304936
-0.167459 0.945547 -0.022686
-0.196882 -0.113411 -0.235529
0.400780 0.221060 0.106337
0.114167 0.690409 -0.155101
-0.250197 -0.060585 -0.224383
-0.400480 0.656708 -0.008542
-0.945901 -0.140235 -0.149555
-0.248592 -0.574838 0.053826
0.295629 -0.078903 0.075456
0.408544 -0.301213 0.244767
-0.708557 0.221572 -0.147743
0.245210 -0.028774 -0.259582
0.087548 0.585335 0.301387
0.212829 0.414295 0.353906
0.921864 0.212930 0.040904
0.066754 0.761379 0.203550
0.612442 0.272634 -0.249335
-0.378363 0.300483 0.178629
0.007345 0.448681 0.374729
0.190938 -0.300050 0.054847
-0.537966 -0.290242 -0.231559
0.008560 0.357965 0.155406
0.174414 0.291053 0.162951
-0.160417 0.945102 -0.077479
0.347074 0.111675 0.096296
0.517655 -0.399190 -0.246180
0.243391 -0.704238 -0.002188
0.022328 -0.181420 -0.261841
-0.431294 0.125464 0.159941
-0.112599 -0.190692 0.093267
0.899831 0.205352 -0.280968
-0.136724 0.432827 -0.168860
0.535953 0.483181 -0.119396
-0.046014 -0.388438 0.206115
0.760572 -0.039250 -0.203220
0.779241 -0.055776 0.040058
-0.131831 0.376148 -0.176662
0.925899 0.208706 -0.185814
-0.784998 -0.283410 -0.090731
-0.273390 -0.610701 -0.276855
0.169857 -0.741687 0.005191
0.095254 0.578155 0.327522
-0.362837 -0.211568 0.282832
0.736317 0.351269 -0.144265
0.090384 -0.446011 -0.301857
0.505382 0.388803 0.119967
0.086537 -0.092740 0.136802
0.673029 0.374439 0.101547
-0.029134 0.849581 0.023169
-0.633242 -0.385500 -0.081528
0.194938 -0.519494 0.233187
-0.430782 0.002633 0.169658
0.141237 0.358852 0.352342
-0.143312 0.102553 -0.211537
-0.243361 0.843568 0.201540
0.617809 0.417506 0.022049
0.412374 -0.147086 0.264622
0.142215 0.554282 -0.175135
-0.561367 -0.259729 0.119892
-0.159643 0.422726 -0.168360
0.472692 -0.377532 -0.323274
-0.283835 -0.602219 -0.292557
0.214825 0.368493 0.347756
-0.155128 0.563306 -0.150331
-0.467048 0.287269 -0.161655
-0.368984 -0.210038 0.264025
0.819496 0.145215 0.063149
-0.799582 -0.076040 -0.182756
0.128481 -0.237098 -0.277557
-0.116557 -0.030094 -0.231013
0.799357 0.311814 -0.178433
-0.366513 0.068355 -0.198276
0.018986 0.288819 -0.200068
-0.021182 0.407130 0.350566
0.199243 -0.897436 -0.023951
-0.411845 0.149849 0.161586
-0.117962 -0.589115 0.228294
0.395601 0.215271 0.105991
0.072174 0.426767 0.366712
0.057360 -0.732156 -0.336661
-0.776398 -0.297779 0.020222
0.408661 -0.478300 -0.331367
-0.142485 -0.702455 -0.221423
-0.515684 -0.318407 0.108587
-0.066326 0.033153 0.326231
-0.638293 0.319685 -0.143809
0.385905 0.381635 -0.217079
-0.120275 0.481515 -0.163798
0.038498 -0.364406 0.058541
0.713373 0.213639 0.080531
-0.054579 -0.681438 -0.321133
-0.003902 -0.635340 0.029054
0.151791 0.613693 0.177476
-0.038153 0.850726 0.085955
0.180892 -0.783497 -0.353191
-0.535206 0.418777 -0.139038
0.048437 0.606585 0.364116
0.276531 0.640605 0.084786
0.476786 -0.337120 -0.318313
0.095561 0.439666 -0.186421
0.149649 -0.601056 0.226116
0.554654 0.128956 -0.263537
-0.540715 -0.232518 0.183341
0.678470 0.006823 -0.289349
-0.210438 -0.621107 0.044742
-0.097759 -0.192310 -0.253724
0.287563 0.452165 0.295704
-0.335247 0.661705 0.222451
0.241264 0.081611 -0.244831
0.014981 0.016438 -0.235377
-0.213021 -0.026736 0.330052
0.206002 0.057932 0.100475
0.469645 0.119230 0.087546
0.089742 -0.328721 0.059137
0.321403 0.614689 0.032567
-0.558879 -0.274831 -0.227882
-0.185187 0.188621 -0.196952
-0.061884 0.274257 -0.195547
-0.517821 -0.451743 -0.221224
-0.014619 -0.399721 0.081469
0.390880 -0.095161 0.093453
0.644686 0.263821 0.092552
-0.135115 -0.698506 -0.316967
0.261060 -0.146809 -0.276281
0.012512 -0.729242 -0.332717
-0.172892 0.539651 -0.152014
0.353237 -0.052707 0.074305
-0.028413 0.458223 -0.174143
-0.125146 0.917191 -0.021516
0.459319 -0.327213 0.113648
0.388502 0.081546 0.089064
0.312288 -0.370789 -0.309648
0.034579 -0.123322 -0.255215
0.041099 0.102476 0.131787
-0.758480 -0.301388 0.130104
-0.071371 0.857128 0.227048
0.290225 0.555200 -0.186775
0.082883 0.781534 -0.064065
-0.096563 -0.255502 -0.262085
-0.078596 0.691420 0.364433
-0.842932 -0.212039 -0.197101
-0.068755 0.074080 0.175731
-0.236700 -0.620724 -0.298722
-0.316722 0.675527 0.222787
-0.861618 -0.152713 0.157745
-0.062096 -0.484457 -0.294771
-0.131551 -0.452285 -0.285044
0.081983 0.784891 -0.099527
0.599065 0.211924 0.089388
-0.163631 -0.247371 0.089908
-0.346197 0.450586 -0.149894
0.560150 0.474548 -0.216282
0.194936 0.384829 -0.201489
-0.333678 0.164131 0.157243
-0.084347 -0.021279 0.320543
-0.492045 0.374464 -0.148264
-0.456273 0.099516 -0.187069
0.494571 -0.327109 -0.318417
-0.621572 0.002465 -0.186630
0.185901 0.271690 0.313351
0.379501 0.425718 0.134797
-0.133301 -0.722699 -0.039908
0.101366 -0.859069 -0.302218
-0.019320 -0.157513 -0.255405
-0.790939 -0.208924 0.144777
-0.073969 0.870111 0.144364
-0.759031 -0.226510 -0.205659
-0.377305 -0.429390 -0.262524
-0.110404 -0.603694 0.039072
0.739069 0.210801 -0.267483
0.088899 0.334625 0.337310
0.494000 0.340628 0.114570
0.698137 0.379042 -0.173446
0.263085 0.362850 0.343184
0.214956 -0.259703 0.058216
-0.787112 0.028252 -0.170105
0.659062 0.005457 -0.287986
0.724716 -0.070971 -0.294488
-0.186945 -0.542810 0.225407
-0.272625 -0.481893 0.178033
0.766062 0.183766 0.072437
-0.066603 -0.187301 -0.255544
-0.019541 -0.789377 -0.159742
-0.399204 -0.216826 0.269137
-0.291772 0.132297 0.149750
0.819910 0.157453 0.064717
-0.344321 0.393258 -0.157542
-0.080639 0.457673 0.211286
-0.217632 0.800223 -0.114376
-0.230193 -0.501258 0.062503
0.002641 -0.669044 0.021543
-0.231404 0.490794 0.191845
-0.138781 0.084605 -0.214244
-0.279736 0.193325 0.156776
0.203926 -0.845651 -0.363151
0.436143 -0.580880 -0.018955
-0.424136 -0.325644 0.100367
0.597946 0.435147 -0.034203
0.172299 0.289379 0.202671
0.099927 0.326719 -0.201541
-0.185634 -0.533902 0.099533
-0.185012 -0.392049 -0.272918
0.174938 -0.924359 -0.094529
-0.038131 -0.031052 -0.237369
-0.054669 -0.567319 0.039402
0.076982 0.490081 0.374612
0.084107 -0.156391 -0.263475
-0.159943 -0.689162 -0.242413
-0.415587 -0.198998 0.116254
-0.602841 -0.418227 0.078248
-0.873996 -0.079322 -0.177273
-0.151502 0.824739 -0.116423
0.184291 0.272871 0.311991
-0.216196 -0.063364 -0.227448
-0.069638 -0.746080 -0.286236
0.322584 0.428413 0.300318
-0.139329 0.909300 0.201899
-0.028151 0.414681 0.313302
-0.580797 -0.260698 -0.224292
0.203307 -0.522804 -0.320873
-0.743854 -0.324109 0.079263
-0.618218 -0.402332 0.005907
0.658662 0.046757 -0.282552
-0.407211 0.660347 -0.117610
0.345400 0.410699 0.332121
-0.156911 0.037199 0.307078
0.376404 -0.617296 -0.236216
-0.099656 -0.671911 0.029295
-0.047758 0.424316 0.357855
0.070214 -0.486551 0.040044
0.088745 -0.860423 -0.176332
0.899261 0.243329 -0.155940
-0.512266 -0.290300 -0.233609
0.407988 0.379343 0.197641
0.159190 -0.303017 -0.288619
-0.533109 -0.248019 -0.226422
0.015273 0.392063 0.159333
0.364635 0.238267 0.318820
-0.440122 -0.424589 0.088695
0.468353 -0.306006 0.084215
0.520902 -0.084229 0.056861
0.002410 0.250135 -0.203810
0.658741 -0.099104 0.043964
-0.607918 -0.127473 -0.204711
-0.667544 0.058553 -0.175642
-0.117143 -0.335125 0.131515
0.276418 0.027970 -0.254640
0.245667 0.678499 -0.137476
0.055666 0.604785 0.325148
-0.907811 -0.205500 -0.037604
-0.175192 -0.158889 0.102400
-0.177011 -0.014458 0.328797
0.129254 0.328509 -0.203637
0.301688 -0.696282 -0.005779
-0.204205 0.941745 0.049146
-0.275048 0.590551 0.208361
-0.374510 0.362183 -0.159208
-0.307264 0.555246 -0.139298
-0.442590 -0.208405 0.152620
-0.409865 0.165075 0.163420
0.764820 0.168165 0.070495
-0.303010 0.256866 -0.178664
-0.416490 -0.538360 0.022280
-0.043321 -0.132780 0.180946
0.794542 0.307035 -0.075569
0.775519 0.317211 -0.042998
0.505734 -0.200993 0.250154
-0.056329 0.051427 -0.225135
-0.700598 0.043100 0.170564
0.030434 0.383696 0.208450
0.197212 0.413273 0.355013
-0.316660 -0.187672 0.109875
0.383168 -0.306553 0.246084
0.240505 0.276467 -0.219283
0.173334 0.612273 -0.170023
-0.246517 -0.362154 0.081480
0.254677 -0.655963 -0.342372
0.100261 0.331545 0.279294
0.294098 -0.701339 -0.351439
0.706268 -0.121017 0.037322
-0.513586 0.050614 0.156689
0.281810 -0.158988 -0.279523
0.940940 0.210269 -0.088806
0.504134 -0.185106 0.252359
0.289847 -0.585485 0.009654
0.159127 -0.303373 -0.288661
