0.701472 -0.007026 -0.020223
0.306746 -0.687142 -0.174039
0.479749 -0.319237 0.194279
0.449748 0.367025 -0.093126
-0.367425 0.615339 0.112318
0.628094 -0.262083 0.189064
0.656369 0.090572 0.256965
0.653015 -0.093875 -0.109592
0.599306 -0.283608 -0.146698
0.743275 0.483219 -0.012866
-0.460974 -0.227356 0.043338
0.418864 -0.627068 0.276697
0.589522 -0.077008 0.231427
0.571724 0.491898 0.303209
0.097024 -0.541169 0.219056
0.351868 -0.041536 0.395359
-0.649015 0.546630 0.039841
0.607549 0.616067 0.204669
-0.445318 0.370346 0.151317
0.471160 -0.087844 0.371334
-0.065441 0.513775 0.355403
0.317311 0.423756 -0.114812
-0.210232 0.703671 0.104109
-0.494420 0.372978 0.052029
-0.567753 -0.597940 -0.252225
0.451460 0.476702 -0.078152
0.283383 -0.190992 0.199376
-0.720512 -0.328792 -0.122331
0.614812 -0.718656 -0.145905
0.413484 0.202175 -0.123070
0.497567 0.399871 0.274592
0.246475 -0.682805 -0.167559
0.305826 0.667392 0.043025
0.473920 -0.666394 -0.225319
-0.024591 -0.540359 0.245871
0.473839 -0.333543 0.214777
-0.056960 0.259429 0.133488
-0.553439 0.340550 0.034685
-0.163530 0.538581 0.249634
-0.335740 0.544634 0.309693
0.480124 -0.391390 -0.187352
-0.242824 -0.051353 0.054291
0.460159 -0.473862 0.199619
0.472690 -0.232691 0.279278
0.633905 -0.252249 0.166441
-0.199575 0.349156 0.147888
-0.201469 -0.221823 0.249216
0.368372 0.054763 0.384288
-0.675893 -0.577919 -0.320812
0.074224 0.298432 0.167638
-0.557141 -0.480711 -0.428217
0.197542 -0.005302 0.154439
0.306642 0.004668 0.200084
0.309104 0.200445 0.206448
0.219655 -0.058934 -0.200607
-0.020702 0.532087 0.209490
0.082761 -0.186778 -0.247840
-0.512324 -0.385283 -0.015532
-0.026627 -0.575258 0.195129
-0.483540 0.519045 0.285544
0.303588 0.035401 0.232941
0.136840 -0.688483 -0.066860
-0.552754 0.471585 0.211704
-0.312851 -0.651542 -0.048549
-0.478878 -0.546343 -0.066885
0.086764 -0.659389 -0.228536
0.223094 -0.663957 -0.277544
-0.308332 -0.361866 0.176272
-0.026069 0.264796 0.141022
-0.532603 0.293507 0.033024
0.196635 0.457958 -0.136900
-0.417962 0.600840 0.099232
0.636204 -0.722047 -0.136067
-0.392899 0.744249 -0.056043
0.476989 -0.017550 0.383925
-0.050815 0.693941 0.075559
0.446191 -0.514418 0.244129
-0.664971 0.033745 -0.181773
0.160618 0.420868 0.203004
-0.088727 -0.626648 -0.341483
-0.155539 -0.234986 0.257603
0.020409 0.528012 0.212389
-0.641606 0.161692 -0.221122
0.636587 -0.175617 0.198097
-0.003000 0.138886 0.129358
-0.467284 0.248397 -0.311350
-0.461790 -0.396862 0.168455
-0.399350 0.720989 0.100131
0.652967 -0.236952 0.082310
-0.315765 0.116695 -0.295429
0.267680 -0.129855 0.311742
-0.063572 -0.349125 0.098578
-0.371711 0.635881 -0.238685
0.409657 0.477946 -0.087214
-0.678359 -0.043607 -0.161582
0.663995 0.245581 0.290798
0.573023 -0.726422 -0.070813
-0.098692 -0.190287 0.241600
0.436489 0.632000 0.199306
-0.537389 -0.609355 -0.195003
-0.254348 0.358811 0.116328
0.714981 0.244368 0.060632
-0.309439 0.427069 0.311737
-0.635514 0.653182 0.036152
-0.696227 -0.315118 -0.084093
-0.400588 0.370762 0.122690
0.511275 -0.712507 -0.126245
0.170744 -0.532858 -0.274475
0.475799 0.016702 0.409739
0.296777 0.060324 0.280748
-0.000079 0.225653 -0.211240
0.432074 0.260410 0.241574
-0.561749 -0.320461 -0.026691
-0.158375 0.154302 0.097110
0.675303 0.283030 0.276919
0.410425 -0.311934 -0.192164
-0.101945 -0.354893 -0.310988
0.200486 0.102060 -0.183413
0.757496 0.490394 -0.003252
0.218025 -0.601163 0.278929
0.278715 -0.198915 -0.206198
0.759918 0.588166 0.042018
0.679360 0.401065 0.314882
0.066964 0.536496 -0.155073
0.698506 0.289200 0.167247
-0.002345 0.258233 0.145385
-0.412799 0.558836 0.261239
-0.639083 -0.591546 -0.252827
0.041676 -0.657178 -0.216911
0.657399 -0.248862 0.053718
-0.495115 -0.256493 0.005877
-0.348161 0.153582 0.055119
-0.530344 0.439124 0.052902
-0.073028 0.092345 0.213420
-0.244754 -0.428412 -0.352297
0.362975 -0.402024 -0.214628
0.053080 0.506237 -0.162165
0.660042 0.040426 0.209752
0.383862 -0.533818 0.336908
0.158250 0.395956 -0.153625
-0.341364 0.127842 0.053194
-0.229582 -0.612372 -0.353474
-0.673043 -0.377504 -0.382523
0.017083 0.522174 0.252569
0.588102 0.608541 0.265251
0.096743 -0.032298 0.128595
0.299433 -0.697491 -0.101980
-0.457083 -0.484984 0.099028
-0.014032 0.339613 -0.199154
0.026746 0.285067 -0.197412
-0.438323 0.576344 0.161282
-0.089665 -0.186261 0.168921
0.241228 0.357210 0.212327
-0.205820 -0.204334 -0.313882
-0.552750 0.506982 0.232354
0.258770 -0.197811 0.354010
0.286942 -0.226717 0.161140
0.491222 0.653014 0.029892
-0.626630 0.197018 -0.273606
0.026027 -0.095243 0.122556
0.152719 0.036566 0.150116
-0.040366 -0.477892 -0.313763
0.393532 0.215828 0.227133
0.706086 0.411192 0.201481
0.630046 0.052786 -0.095144
-0.370061 -0.414476 0.110121
-0.284097 -0.345387 0.108441
-0.216211 -0.634002 -0.219464
0.640505 -0.309289 0.100909
-0.381707 0.599978 -0.245670
0.707293 0.039229 -0.021629
0.453821 -0.407438 0.269351
-0.458809 0.360198 0.225636
0.337557 -0.434552 0.339897
-0.090869 0.069430 0.312391
-0.525294 0.739351 0.052721
-0.306288 -0.367683 0.008697
0.634990 -0.400831 0.074374
0.595019 0.650029 -0.010651
0.679038 0.320499 -0.048701
0.350594 0.591324 0.267626
-0.169549 -0.202946 0.258774
0.055374 0.319660 0.377976
-0.553512 0.447072 0.201088
0.663133 -0.282870 0.005868
0.017478 -0.687782 -0.002332
0.023040 0.293956 -0.197047
0.225163 -0.672934 -0.219910
-0.436307 0.251722 0.048721
0.360486 -0.587954 -0.239921
-0.204146 -0.283064 0.063471
0.396367 0.674299 -0.054671
0.533706 0.101744 0.242894
-0.038154 0.528817 0.241024
-0.676889 0.200106 -0.026437
0.334382 0.630582 0.267726
-0.500097 -0.380796 0.162136
-0.116048 -0.643297 0.000308
-0.189893 0.351765 0.125180
0.022443 0.690089 0.058379
0.250863 0.163019 -0.164180
-0.134978 0.318879 0.335852
0.189718 -0.277951 -0.236363
0.289591 -0.172932 0.179613
-0.689481 -0.349517 -0.285926
0.190286 0.679285 0.031992
0.273638 0.657510 0.126430
-0.030161 -0.020392 0.313839
0.219195 0.126897 0.176813
0.307477 -0.279542 -0.210579
0.016610 -0.031470 0.265720
0.358763 -0.110207 -0.176722
-0.080404 -0.653673 -0.169191
-0.663325 0.113518 -0.143224
-0.608391 0.670505 -0.086151
0.244936 -0.341331 0.331856
0.270899 -0.059716 0.336986
0.130557 0.419472 0.273516
0.058743 0.118832 0.140319
-0.525512 0.501418 0.096129
0.630642 -0.274103 0.169605
-0.431556 -0.623311 -0.164827
0.050638 -0.181166 -0.254185
-0.674098 0.046389 -0.129830
-0.115447 0.064800 -0.258115
0.105043 -0.543023 0.178826
0.104071 -0.518341 0.197983
0.515127 -0.367504 -0.176446
0.669294 -0.311237 -0.040777
0.016031 -0.657006 -0.203191
-0.503183 -0.268024 -0.388001
-0.191020 0.511263 0.349083
0.663371 -0.279972 0.006398
0.275478 0.150594 -0.160399
-0.512714 -0.118253 -0.370173
0.593905 -0.640581 0.134945
0.128315 0.354186 -0.165792
-0.117747 0.514588 0.365700
0.620328 -0.528252 0.071546
0.671117 0.591034 0.331911
-0.495787 0.578413 0.180996
0.459232 -0.568741 -0.215566
0.512032 0.062153 0.252664
0.691189 -0.016042 -0.090807
0.295469 -0.053182 0.220848
-0.627985 0.578593 -0.044166
-0.351661 0.689678 0.125691
-0.377781 0.356677 -0.277182
-0.330509 0.123948 0.055072
0.066233 0.708335 -0.086554
0.746460 0.403365 -0.000200
-0.686616 0.112851 -0.029906
-0.697639 -0.581368 -0.285618
0.054729 0.513485 0.287715
0.464535 -0.383818 0.230837
0.195708 0.088188 -0.186314
0.471179 -0.726658 -0.010287
-0.033590 0.382828 -0.197721
-0.416047 0.274318 0.056200
-0.588958 0.518660 -0.269691
-0.476525 -0.476443 0.154611
0.122954 -0.490863 0.121843
-0.667830 0.181767 -0.081376
0.015980 -0.001220 0.192483
-0.546051 0.440413 0.049606
0.449705 0.177984 -0.118293
-0.472730 -0.461035 0.052591
-0.550270 0.537252 0.237921
0.245710 0.286890 0.203958
-0.337372 0.750184 -0.127093
-0.092173 -0.189298 0.146032
-0.004744 0.673571 0.182379
0.383429 -0.732799 0.080774
0.121353 -0.376742 0.172480
-0.113918 0.685645 -0.175154
0.145899 -0.336943 -0.253887
-0.161588 -0.242737 0.200141
-0.538212 0.330907 0.036763
-0.333939 -0.389607 0.015934
0.420196 0.544481 0.276757
0.386680 -0.607449 0.116057
-0.703158 -0.577394 -0.308464
-0.080329 0.442880 -0.200047
0.739740 0.462101 0.066908
0.023010 0.446364 -0.176771
0.025316 0.101377 0.130617
0.218279 -0.701199 -0.030684
-0.364538 -0.613809 -0.265907
0.326836 0.634052 0.249354
-0.364388 -0.149052 0.056699
0.477502 -0.317504 0.206257
-0.346559 -0.351296 -0.364508
0.321015 0.575099 0.258937
0.137584 -0.377721 0.116492
0.033220 0.712327 -0.093597
-0.002007 -0.473637 0.259736
0.701451 0.371157 0.200727
0.756028 0.564726 0.000797
0.127558 0.359540 0.253157
0.468393 0.304816 0.255501
-0.641703 -0.077886 -0.360556
-0.120923 0.722338 -0.069944
0.579812 0.097836 -0.100238
-0.643680 -0.039942 -0.328745
0.670068 0.001611 -0.093120
-0.459332 -0.224718 0.072920
-0.655001 -0.112513 -0.315853
0.687303 -0.133067 -0.024650
-0.309857 0.759487 -0.203996
0.590321 0.011337 -0.109430
-0.726978 -0.495000 -0.187824
-0.654431 -0.452495 -0.445939
-0.003947 -0.637995 -0.316215
0.425234 -0.323112 0.374082
-0.354435 -0.251190 0.211540
-0.494880 0.766701 -0.248465
-0.253530 0.576293 0.132264
-0.090389 -0.529489 0.112375
-0.542137 0.322855 0.034825
-0.040687 -0.219115 -0.279395
-0.151333 0.185183 0.102774
-0.427645 -0.407884 0.174525
-0.153364 0.179149 -0.251267
0.567489 -0.371556 -0.165426
0.262602 -0.514355 0.101056
0.242880 -0.400522 0.274755
-0.406422 -0.123824 0.005340
0.359061 -0.712720 -0.036704
-0.068221 -0.490431 -0.321580
-0.277168 0.388345 -0.250757
-0.511548 0.383287 0.104859
0.688851 0.495177 0.329502
-0.495272 0.701016 0.095497
0.471939 0.138065 0.234093
-0.092884 -0.430050 0.182629
0.284525 -0.373998 0.336248
-0.165024 0.530281 0.304898
0.623930 0.639984 0.038437
0.117617 0.466774 0.364308
-0.119584 0.054323 0.200740
-0.330227 0.565697 0.168458
0.525294 0.359951 -0.077390
-0.040371 0.029346 0.287423
-0.686953 -0.330036 -0.286893
0.590657 -0.099210 -0.124067
-0.238154 0.671451 0.148322
-0.471184 0.583090 0.136103
0.328170 0.281736 -0.131315
-0.629314 -0.078424 -0.390613
-0.384576 0.211469 0.054784
0.465415 -0.199244 0.334326
-0.639019 0.291224 -0.158112
0.150958 0.148778 -0.188129
-0.396761 0.553732 0.285403
0.667856 -0.054320 0.116276
-0.400452 0.738309 -0.012740
-0.457911 0.705823 0.104384
0.314610 0.061582 0.370732
-0.204750 -0.101752 -0.299994
0.118235 -0.508522 -0.282828
-0.480550 0.115620 0.020841
-0.533924 0.495898 0.133972
-0.550664 0.404088 0.162081
-0.097455 -0.439797 0.243169
-0.076052 -0.376551 0.131694
0.670604 -0.437417 -0.120858
0.099617 -0.352509 0.086615
0.492338 0.334997 0.264804
0.411219 0.486006 -0.085797
-0.611693 -0.047811 -0.382649
-0.553096 -0.506566 -0.430765
0.305643 -0.389033 -0.225555
-0.049752 0.703715 0.010889
-0.435454 0.635416 0.099972
0.288474 -0.693448 0.082933
-0.477121 -0.534720 -0.417740
-0.725018 -0.500379 -0.200533
-0.556601 -0.107130 -0.025591
0.627014 -0.415356 0.104832
-0.381010 0.724811 0.064462
-0.717832 -0.262842 -0.096903
0.048840 0.346284 0.380077
0.373629 0.333630 0.238417
-0.254127 0.710392 0.085478
0.091876 0.349550 0.390012
-0.375378 0.382074 -0.273272
0.425865 -0.706330 -0.117271
-0.014851 -0.121303 0.275946
-0.581339 0.725609 -0.186039
0.467284 -0.730591 0.017742
0.427498 0.664907 -0.011149
0.744513 0.381093 -0.026183
-0.412442 0.401864 -0.278820
-0.396439 -0.626248 -0.165914
0.204572 -0.590470 -0.274674
0.702117 0.075640 0.024902
-0.207600 0.724311 -0.190689
0.310063 -0.706133 -0.051502
0.224452 -0.702181 -0.027824
0.158156 0.684296 0.017754
0.049006 -0.075762 0.144861
0.391319 -0.010630 -0.156283
0.708582 0.535727 0.262017
0.509091 -0.145961 -0.148295
0.680654 0.312203 0.267834
-0.587245 -0.207960 -0.398565
0.306034 -0.720264 0.043440
-0.530680 0.410260 0.068124
-0.300880 0.299496 0.084975
-0.255660 -0.059079 0.112701
0.499095 -0.718967 -0.076855
-0.346885 -0.199218 0.220123
0.736074 0.572711 0.149400
0.461175 -0.403061 0.236004
0.024243 -0.385942 0.277201
0.529764 -0.710245 -0.151775
0.052706 0.309786 0.259810
-0.314553 -0.218379 0.224710
0.485128 0.060881 0.276582
-0.310628 -0.101359 0.156385
-0.151394 -0.237765 0.127607
0.121854 -0.698196 0.005469
0.419172 -0.573155 0.339468
-0.621281 0.631538 -0.045976
0.389112 0.375488 0.247405
-0.194970 -0.101573 0.266654
-0.400219 0.573198 0.159834
-0.533362 -0.444354 -0.418130
0.663795 -0.229496 0.033802
-0.090614 -0.186932 0.170983
-0.380416 -0.289467 0.200711
-0.620511 0.310334 0.015858
0.681557 0.327315 0.272246
0.270638 -0.256452 0.348826
0.184132 0.043573 -0.194807
0.121260 0.687283 0.019546
0.674842 0.164552 0.209984
0.143275 -0.673096 -0.171429
-0.476345 0.677421 0.096535
-0.476544 0.734366 0.057163
0.691412 -0.064417 -0.004622
0.641109 -0.388932 0.051449
0.308295 0.679439 -0.037355
-0.076594 -0.571423 0.198928
0.021365 -0.679975 -0.055746
0.566724 -0.066019 -0.124933
0.198148 -0.561572 -0.272247
0.106409 0.487068 0.411521
-0.186252 -0.199424 -0.308908
0.356510 -0.300149 0.361967
0.411962 0.557371 0.276655
-0.511324 -0.438540 0.113738
-0.474740 0.756505 -0.088972
-0.055468 0.262259 0.134194
0.360688 0.675563 -0.042293
0.245928 -0.356256 0.285724
0.559149 -0.123917 -0.134311
0.033096 -0.568647 0.254841
-0.084818 0.222971 -0.230304
-0.328350 -0.383832 0.044651
0.008952 0.714079 -0.091028
0.105302 -0.473953 0.217894
0.205741 -0.436835 -0.253970
-0.181173 0.533712 0.291764
0.600637 -0.692875 0.071543
-0.527475 0.649184 0.081490
-0.577977 0.773022 -0.137435
0.672724 0.202921 0.242728
0.685809 0.000266 0.060506
0.282691 0.436913 0.232087
0.265433 -0.144345 0.314248
0.514224 0.647387 0.053448
0.357469 -0.646993 -0.248444
0.417040 -0.629042 0.290686
-0.270454 -0.288241 0.225148
-0.277930 -0.344089 0.026155
0.432106 -0.506561 0.317478
-0.248742 0.092970 0.068999
-0.271493 0.358999 0.125025
-0.463011 -0.445563 -0.015314
0.741627 0.614352 0.138261
0.700384 -0.104384 -0.071764
-0.305895 0.659259 -0.221045
0.379442 -0.380332 0.356359
-0.734608 -0.495524 -0.116575
0.466549 -0.312761 0.262503
-0.133445 -0.153913 0.273270
0.149528 0.255490 0.178547
0.106169 0.327911 0.339109
-0.331739 -0.117896 0.166452
0.292276 -0.108521 0.204120
0.044251 0.312604 0.246238
0.045653 0.650679 0.208209
0.491414 -0.151595 -0.152947
0.590562 -0.619105 0.159513
-0.011973 -0.367265 0.187583
-0.579158 0.269448 -0.333245
-0.553794 0.492168 0.228797
-0.582022 -0.232165 -0.400633
-0.092105 -0.191795 -0.287110
-0.155002 -0.243769 0.057960
-0.191768 0.535424 -0.212331
0.721342 0.368565 0.102106
-0.016303 -0.670367 -0.096906
-0.557938 -0.592486 -0.293656
-0.376981 0.575234 0.133035
0.228341 0.659320 0.140794
-0.304485 0.748491 -0.135041
0.118106 0.347514 0.292278
0.469298 0.631381 0.184361
-0.431264 0.724212 0.097488
0.532555 -0.724601 -0.059311
-0.668496 -0.083740 -0.233171
0.692267 0.039590 0.051941
-0.386319 -0.254001 -0.360337
0.128944 0.432978 0.289277
-0.513338 -0.590384 -0.333255
0.434584 -0.539329 0.286245
0.650886 0.143650 -0.078451
-0.015153 -0.350838 0.081766
0.412615 0.655249 0.060769
0.176122 -0.663955 -0.250353
0.414738 0.013669 -0.147880
-0.047847 0.527720 0.253826
0.600053 -0.564861 0.149151
0.656260 -0.448979 -0.057584
0.659378 0.068193 0.229206
0.331185 -0.460878 -0.229478
0.582217 0.361907 0.288226
0.449749 -0.357913 0.318153
-0.411420 0.722869 0.094797
0.170951 0.032695 -0.199164
-0.435229 0.248065 0.048472
0.017750 0.236634 0.146947
-0.403823 0.390971 -0.278367
-0.599910 0.466089 -0.246928
0.621756 -0.391038 0.144701
0.449446 0.041362 -0.136532
0.123124 -0.693439 -0.026438
-0.123763 0.280810 0.121587
-0.279264 -0.341064 0.118198
0.027908 0.468988 -0.172679
-0.390584 -0.434997 0.020077
-0.669275 0.291198 -0.010416
-0.409091 0.662317 0.109372
0.735334 0.453627 0.083468
0.160520 0.364490 0.195479
-0.604027 0.422063 0.034366
-0.170009 -0.042013 -0.284374
0.653329 -0.443227 -0.039913
-0.058868 -0.456062 0.249522
0.609864 -0.714693 0.013757
-0.562217 -0.038275 -0.017667
-0.321209 0.756949 -0.180787
-0.183416 0.198639 -0.255307
0.305018 0.484912 -0.109387
0.476683 0.113504 -0.120919
0.223749 0.546639 0.233678
-0.490721 0.038116 0.008282
0.155475 0.430382 0.203135
-0.294499 0.756706 -0.194667
-0.291689 0.292340 -0.266739
0.317413 0.303641 0.222016
-0.571499 0.132015 0.002946
-0.590350 0.671225 -0.173804
0.120165 -0.541159 0.106086
0.025567 -0.497185 0.262689
0.435746 -0.103839 -0.158880
0.474798 -0.111822 0.339573
0.294851 0.246563 0.209439
0.031776 0.212349 0.146812
-0.651090 -0.137820 -0.349728
0.203357 -0.698842 -0.037494
0.728262 0.359356 0.062947
0.381083 -0.685048 -0.230810
0.049813 0.497326 0.396465
-0.439406 0.571525 0.193490
-0.606621 0.587443 -0.143297
0.105645 0.310764 0.222744
-0.237033 -0.308265 0.091734
0.139498 -0.366352 0.093885
0.429532 -0.534092 0.313969
-0.048616 -0.648171 -0.223658
-0.119778 -0.034288 0.292207
0.259608 0.362402 -0.135715
-0.225437 0.168920 0.084251
0.279361 0.393491 -0.127217
-0.005045 -0.025269 0.315979
-0.414071 0.284063 0.057934
-0.280411 -0.084404 0.250077
0.722272 0.327522 0.073598
0.038866 -0.395366 0.279175
-0.557205 0.424699 0.256726
-0.310352 0.098402 -0.296669
0.633135 0.441206 0.310020
0.327768 0.058250 0.384953
-0.669081 -0.170401 -0.280921
0.211273 -0.110533 -0.209324
-0.677228 -0.447782 -0.403128
0.020804 -0.572649 0.150562
-0.093188 -0.512182 0.136149
-0.292668 0.301558 -0.265728
0.013254 -0.609387 -0.319426
-0.502702 -0.262423 0.009771
0.493600 -0.067413 0.273714
-0.552133 0.723355 -0.266872
-0.693465 -0.275337 -0.223157
-0.267560 -0.583555 -0.377978
0.086226 -0.542785 0.270011
-0.605131 0.271126 -0.335291
0.633594 0.565829 0.326706
-0.281549 -0.212180 -0.331643
0.171731 0.037803 0.154478
-0.468458 0.663565 -0.256358
0.260526 -0.545871 0.103728
0.102562 0.313041 0.348033
-0.585974 -0.323853 0.134833
-0.227169 -0.389810 -0.343278
0.476501 -0.366531 0.182514
0.165200 0.701474 -0.098900
-0.353849 0.206757 0.060940
-0.385111 -0.159397 0.198806
-0.398079 0.569348 0.183826
0.375413 0.150567 -0.138342
0.668402 -0.243671 0.003034
0.586300 -0.743596 0.034056
0.692853 0.215199 0.151629
0.455092 -0.736876 0.065995
0.111583 0.702199 -0.072601
0.636616 -0.405631 -0.154701
0.683819 0.455730 0.323141
0.005832 -0.670906 -0.106188
0.471297 0.558668 0.289926
-0.562398 -0.070715 -0.374815
0.223113 -0.523447 0.299471
-0.205293 0.546924 -0.213786
-0.628606 0.001864 -0.377926
-0.079894 -0.358287 0.161118
-0.435476 -0.132016 -0.002164
-0.381394 -0.608470 -0.291136
0.275062 0.340734 -0.135187
-0.459014 -0.273435 0.185493
0.483071 -0.288826 0.195818
-0.331114 -0.388404 -0.008085
-0.512583 0.061923 -0.346166
0.581889 0.234051 0.271138
0.672841 0.599681 0.274245
0.003809 0.524969 0.241941
-0.135364 0.437468 -0.212916
-0.049131 0.557373 0.174868
0.245611 0.308928 0.206869
-0.193720 0.719288 -0.007802
-0.073897 -0.179591 0.071324
-0.713905 -0.342333 -0.162493
0.362441 -0.268952 -0.197036
0.645555 -0.598507 -0.092641
-0.638738 0.070604 -0.288316
0.072760 0.588156 -0.146918
-0.090942 -0.544660 -0.333813
-0.109133 0.684468 0.171411
0.333791 0.646205 0.165680
-0.247676 0.529986 0.339068
0.337713 0.076813 0.257537
0.232844 -0.534777 0.245347
0.492523 -0.145861 0.233160
-0.501497 0.453857 -0.291560
-0.302076 0.626217 -0.224599
0.393858 -0.426034 -0.211006
-0.630420 0.057260 -0.336718
0.555645 0.572911 0.310441
-0.367495 -0.414603 0.060901
-0.158314 0.138956 0.095081
0.125254 0.312477 0.200162
0.622578 -0.641042 -0.005306
-0.641636 -0.116346 -0.383344
-0.466448 0.577289 0.171374
0.390379 0.090124 0.209708
0.413004 0.304970 0.243295
-0.187265 0.339889 0.201491
-0.068940 0.696318 0.070477
0.403887 -0.492128 0.346877
-0.040940 0.359419 0.362006
0.004965 0.565149 -0.164946
-0.621611 0.116607 -0.345068
0.186865 0.684628 -0.001042
-0.298933 0.501492 0.323960
-0.250783 -0.040844 -0.302050
-0.452933 -0.475502 0.028501
0.264952 -0.096800 0.368818
-0.297315 0.744638 -0.113946
-0.646958 0.137231 -0.209279
-0.270622 0.546187 0.261803
0.278334 -0.677766 -0.219030
0.018920 0.050176 0.122391
-0.629979 0.457784 -0.104977
-0.121947 0.637480 -0.183336
-0.656691 0.015609 -0.232786
-0.139277 -0.650136 -0.158278
-0.091018 -0.184458 0.233859
0.191820 0.672451 0.075888
-0.022774 -0.600160 0.026639
-0.225000 -0.032673 0.151737
0.765345 0.606132 0.026017
0.393550 0.060961 0.329089
0.480094 -0.260826 0.226702
0.130664 -0.437035 0.115636
-0.027204 0.675564 0.182324
0.186802 0.645228 0.238642
0.051103 0.557352 -0.155799
0.566313 0.633387 0.115034
0.251996 -0.542772 0.306607
-0.334013 -0.285880 -0.353033
0.636983 -0.341453 0.099319
-0.468287 0.565387 0.250441
0.247034 -0.292914 0.317313
-0.450259 0.764015 -0.152364
-0.711838 -0.353162 -0.092602
0.413714 -0.433763 -0.207651
-0.226643 0.423665 0.329561
0.373045 -0.377939 -0.209199
-0.457519 -0.596843 -0.323250
-0.172900 -0.193197 0.259332
-0.474163 0.711473 0.101549
0.107666 0.663733 0.181758
-0.144012 -0.664340 -0.062447
-0.253250 -0.607000 -0.374977
-0.613633 0.519409 -0.148793
-0.493505 -0.621684 -0.139614
-0.636807 0.559835 -0.012050
0.092123 0.222857 -0.191259
-0.143915 -0.322230 -0.315906
0.307070 0.009073 0.200566
-0.318510 0.744500 -0.100767
0.560935 0.381900 -0.066601
0.307783 -0.706419 -0.048304
0.449382 -0.565039 0.198990
-0.543961 0.474498 0.170477
0.524292 -0.531830 -0.196291
-0.510104 0.364741 0.225566
-0.155263 0.059362 -0.267628
0.114388 0.673864 0.111472
0.547637 0.586411 0.310470
-0.567542 -0.580446 -0.366996
-0.644189 0.375444 -0.083691
0.498991 -0.051739 0.256545
0.080051 -0.369805 0.150935
-0.237011 0.333367 0.103582
-0.357617 0.370278 0.100981
0.195509 0.412807 0.209633
-0.486289 0.735661 0.054317
0.181266 0.620592 0.234141
0.705612 -0.010785 -0.042629
0.184162 0.146642 -0.181084
-0.716732 -0.468657 -0.222462
-0.131295 0.721895 -0.061035
0.084823 0.685985 0.049154
0.508606 -0.001289 0.239067
0.222686 -0.548000 -0.265024
-0.530476 -0.437038 -0.063729
0.011901 -0.576577 0.181463
0.254023 -0.482359 0.172562
-0.101137 0.529038 0.276047
-0.314876 0.358589 0.152835
0.219715 0.019980 -0.190092
0.693899 0.138003 0.101445
0.605697 0.492595 0.310802
-0.053701 0.714859 -0.059860
0.505156 0.529456 0.293512
-0.069944 -0.364949 0.205973
-0.541390 0.738171 0.069778
0.270444 0.689645 -0.082321
0.654690 -0.456033 -0.054038
0.103560 -0.558262 0.177168
0.588911 -0.258366 -0.145634
-0.287243 0.563439 0.158366
-0.435066 0.404193 0.280960
0.569573 0.634373 0.106688
-0.372367 0.226893 0.059532
0.453188 0.654370 0.043031
-0.511850 0.783412 -0.243818
0.132920 -0.027525 -0.215574
0.340557 0.263924 0.221839
0.594153 0.599576 0.320502
0.731496 0.338922 0.035222
-0.065232 -0.087034 -0.267236
-0.228967 0.715988 0.034236
0.390573 -0.528244 0.339131
0.707936 0.502199 0.245595
-0.625596 -0.582556 -0.319553
0.186467 -0.688841 -0.093251
0.460079 -0.397333 -0.192567
-0.079509 0.537412 0.208641
-0.361521 0.234423 0.062928
-0.366700 0.558989 0.233546
-0.486963 0.386745 0.067960
-0.404846 0.356933 0.215789
0.639564 -0.077226 -0.110345
-0.039573 0.223102 0.132492
0.284662 0.478959 -0.114673
0.164477 -0.646187 -0.290940
-0.646310 0.099574 -0.017886
-0.385092 -0.161552 0.150066
0.071537 -0.483675 0.274635
0.250606 -0.569518 -0.261724
-0.454849 0.744444 -0.021445
-0.596192 0.474917 0.043129
0.238695 -0.496820 0.098112
0.074325 -0.027293 -0.228478
-0.301969 0.240254 -0.275940
-0.347058 -0.004582 0.034313
0.291991 -0.685414 -0.176820
-0.141048 -0.463260 -0.334041
0.261182 -0.491769 0.132119
-0.492395 -0.586398 -0.371509
0.677586 0.151057 0.188707
0.629322 0.624074 0.139582
0.268340 -0.304697 0.206416
0.745063 0.347580 -0.025954
0.652877 -0.153559 0.131448
0.311807 0.395550 0.233010
-0.636366 -0.612827 -0.114933
0.473486 -0.291943 0.240793
0.476062 0.267749 0.252261
0.417546 0.188048 0.228737
0.766904 0.584994 0.006062
0.717903 0.498609 -0.016419
0.091471 0.092696 0.144066
0.437654 -0.418493 0.341825
0.275782 0.266216 -0.144945
-0.578915 0.253859 0.017524
0.133161 -0.420000 0.113393
-0.240398 -0.632055 -0.218217
-0.045974 0.101610 -0.237879
0.512186 0.249467 -0.094988
-0.162689 0.017434 0.151139
-0.726475 -0.330967 -0.094487
-0.083391 -0.418819 0.249065
0.227867 -0.562541 0.253434
-0.656416 0.024796 -0.228764
0.110306 -0.652229 -0.289088
0.044028 0.513965 0.290766
-0.212374 0.211024 0.092738
0.542705 0.347486 -0.075206
-0.589449 0.759295 -0.040831
0.419367 -0.573619 0.339449
0.126448 0.384755 0.273302
0.695316 -0.013835 0.005856
0.465472 -0.585043 0.136432
0.232074 0.482535 0.226984
0.429404 -0.688376 -0.236984
0.126296 -0.676879 -0.136801
0.496692 -0.530766 -0.202243
-0.328892 0.680177 0.129453
-0.587646 -0.076337 -0.028346
0.254474 -0.687342 -0.142461
0.369278 0.342829 0.238680
0.562675 -0.268079 -0.152718
0.020249 -0.095637 0.218102
-0.519552 0.071907 0.006414
-0.019224 0.308017 0.148285
-0.258944 -0.322400 0.170207
-0.110738 -0.219383 -0.294895
0.647203 -0.330234 0.055978
0.487971 -0.046124 0.313624
0.653794 -0.156682 0.125149
0.454489 0.618417 0.277898
-0.660895 0.281245 0.003071
0.502766 -0.021881 0.255553
0.170794 0.465895 0.211242
0.119954 0.489525 -0.149626
0.308030 -0.503583 0.324192
-0.703000 -0.520645 -0.319861
0.679649 0.190543 0.201691
0.255467 -0.200443 0.330141
0.666317 -0.418657 -0.149878
-0.640838 0.145921 -0.010510
-0.009877 0.156494 -0.222607
-0.701772 -0.190398 -0.133002
-0.208795 0.415046 -0.232110
0.026566 -0.692009 0.020103
0.699914 0.280289 0.155168
0.142870 0.301381 0.183184
0.246495 0.184287 0.190477
-0.656145 0.434260 0.024484
-0.523902 0.042773 -0.351214
0.359890 -0.160672 0.381275
0.054650 -0.572869 0.132409
-0.631437 -0.001698 -0.366184
-0.572852 0.656979 -0.267549
0.436675 -0.677952 -0.235079
0.729265 0.481095 0.129141
-0.213716 -0.657793 -0.064991
0.676646 0.273715 0.264921
0.022413 -0.113552 0.101373
0.460363 0.585642 0.291102
0.628772 0.608373 0.242802
-0.548857 0.033314 -0.005191
0.297013 -0.606752 0.214115
-0.582739 0.768994 -0.108282
0.461988 0.065221 0.261538
0.208346 -0.132745 -0.212926
0.028742 -0.659471 -0.194394
-0.437174 0.477034 -0.274276
-0.596844 0.541224 -0.218017
-0.360367 -0.262393 0.208740
-0.410918 -0.452265 -0.000293
0.504262 0.318947 0.265300
-0.026516 0.074053 -0.237252
0.566550 -0.573494 -0.192507
0.700207 0.318806 0.176230
-0.459558 0.370247 0.160215
0.674021 -0.348426 -0.085574
-0.448750 -0.211589 0.176577
-0.525201 -0.591944 -0.316160
0.610231 0.634148 0.084615
-0.705397 -0.179502 -0.108942
0.470111 -0.438376 0.171756
0.056812 -0.487877 -0.293639
-0.587050 0.662728 -0.194878
0.176747 -0.681640 -0.134815
0.563789 -0.087115 -0.128389
0.562877 0.649697 0.010135
0.054939 -0.450945 0.275326
-0.038077 0.306765 0.332179
0.572585 0.654525 -0.027128
-0.521084 0.209065 0.024329
-0.226567 -0.642357 -0.158708
0.121434 -0.043994 0.132489
-0.040907 -0.673004 -0.065376
-0.515996 0.778805 -0.211225
0.483426 -0.735528 0.040753
0.660913 0.055704 -0.087942
0.287757 -0.162948 0.194398
0.476635 -0.264841 0.241247
0.023570 -0.379448 0.246841
-0.640394 0.413539 -0.079971
-0.366046 0.032616 -0.317718
0.504463 0.333980 -0.085445
0.023384 -0.343392 0.071000
-0.405859 -0.444507 0.082512
0.501965 -0.021510 0.259681
0.386064 0.449437 -0.096217
0.507810 0.023174 -0.126069
0.640655 0.213918 0.281432
0.610111 -0.411427 0.189648
0.428950 -0.127904 -0.163583
-0.197981 -0.012958 0.106279
-0.307126 0.727244 0.005732
-0.033163 0.000337 0.315935
-0.048646 0.725276 -0.131051
0.495668 0.051390 0.332678
-0.237387 -0.309137 0.078528
0.094618 0.317862 0.182609
0.097078 0.304562 0.268346
0.539019 -0.545763 -0.194895
-0.487917 0.288100 0.042169
-0.436585 0.337640 0.060094
-0.156240 0.161961 0.098601
0.273550 -0.089838 0.371642
-0.329158 -0.646700 -0.070840
0.070319 -0.585277 0.204651
-0.111262 0.191597 0.112474
-0.679401 0.125918 -0.057500
-0.181845 0.010229 0.072756
0.211010 0.106210 -0.180537
0.636438 -0.637912 -0.071142
-0.656021 -0.047103 -0.272678
-0.612048 0.655521 0.063664
0.599325 -0.690132 0.079552
-0.426512 0.562314 0.246391
0.221196 -0.477468 -0.255966
-0.518640 0.077524 0.007363
-0.005609 -0.114521 0.261233
0.150870 -0.669450 -0.199720
-0.529620 0.493657 0.111653
0.091773 -0.555355 0.236409
0.372025 -0.152451 0.385048
-0.459488 0.139111 -0.324173
-0.326299 -0.294393 0.212002
0.701424 0.511823 0.283006
0.432337 -0.606846 0.126216
0.050548 0.380806 -0.179416
0.700230 0.254002 0.138277
0.212504 0.490442 0.223717
0.268718 -0.505263 0.315290
0.204908 -0.110448 0.142072
-0.671774 0.144011 -0.084166
-0.640773 0.028225 -0.303131
0.493669 0.032629 0.331799
0.645695 -0.107673 0.193308
-0.270923 0.745788 -0.136767
-0.468485 0.582957 0.135408
0.057383 -0.137339 -0.246863
0.486156 -0.163097 0.254181
-0.552157 0.401382 0.167793
0.284857 -0.606767 0.221249
-0.128505 -0.651506 -0.155538
-0.643998 0.189462 -0.193231
0.613934 -0.084774 -0.117008
-0.144213 0.697961 0.103300
-0.435903 -0.201795 0.164379
0.442162 0.581884 0.286584
0.631499 -0.345148 0.123935
0.183446 -0.023288 -0.203856
0.234205 0.232131 0.194131
-0.072620 0.511787 0.372588
0.631522 0.611256 0.222314
-0.233771 0.082130 0.070861
-0.375127 -0.153514 0.150529
-0.606642 0.658865 -0.101487
0.632661 0.214926 -0.072989
0.465970 -0.412672 0.206983
0.035369 0.500430 -0.166847
0.643978 -0.091864 0.210920
-0.214650 -0.591715 -0.367384
-0.423070 -0.220271 0.200503
0.625720 -0.692316 -0.050586
-0.095254 -0.505506 0.150134
-0.294252 -0.092667 0.034248
-0.161203 0.511982 0.355761
0.401766 0.057053 0.349941
-0.095745 0.330432 0.210468
0.526452 0.373944 0.277518
0.295108 0.016372 0.263228
0.030814 0.527216 0.211577
-0.383515 0.098806 0.040024
0.395910 0.632151 0.221814
0.704382 0.059515 0.004431
0.301070 -0.100872 0.165653
0.190782 0.260666 -0.164448
0.353748 -0.602095 0.150740
0.653175 -0.452189 -0.044398
-0.117335 0.161882 0.107179
-0.446421 0.764590 -0.158358
-0.497355 -0.096009 -0.363823
0.266273 -0.716473 0.041623
0.699975 -0.154910 -0.107348
-0.686414 -0.370777 -0.313317
0.171613 -0.287768 -0.241666
-0.727746 -0.505706 -0.190324
-0.379281 0.348442 0.256627
-0.566719 -0.615998 -0.134478
-0.135895 -0.653167 -0.140373
0.072737 -0.687017 -0.039351
0.404001 0.650436 0.097297
-0.450145 -0.584739 -0.406842
0.569573 0.218426 -0.086450
0.483956 -0.066112 0.321554
0.418614 -0.663074 0.115704
0.268366 0.574234 -0.105591
0.378580 -0.422346 0.350577
-0.590407 0.579967 -0.226819
0.029830 -0.291504 -0.273462
-0.660666 -0.111315 -0.287498
-0.063043 0.519153 0.318769
0.623504 0.645240 0.004238
0.656920 -0.624131 -0.163087
0.143632 0.470289 0.239356
0.267673 -0.432537 0.135017
-0.290969 -0.409767 -0.007228
-0.250794 -0.102537 -0.310262
0.018747 0.698242 0.007089
0.338606 0.345094 0.232211
-0.710039 -0.467042 -0.254191
-0.203122 -0.200510 -0.312777
-0.371393 -0.283800 -0.361008
-0.627334 0.640702 -0.011071
0.022596 0.312651 0.258471
0.287159 -0.173421 0.363523
0.030605 0.103703 -0.220696
0.667150 -0.527006 -0.156311
-0.152489 -0.156952 -0.295803
0.697312 -0.012881 -0.089034
0.016286 -0.352288 0.073061
-0.411809 -0.601656 -0.318177
0.308816 0.245038 -0.140471
-0.489722 -0.287138 0.176891
0.657699 -0.583648 -0.173738
-0.137935 0.271764 0.117254
-0.513168 -0.423443 0.081827
-0.506197 0.762779 -0.111873
-0.164341 0.526721 0.327831
0.066109 -0.254005 0.092327
-0.336844 0.297573 0.076779
-0.302142 -0.006872 -0.308866
0.676130 -0.442652 -0.150893
0.146936 0.489090 0.234207
0.710218 0.426965 -0.027650
-0.414170 0.747753 -0.066692
-0.189952 -0.562238 -0.358009
-0.080655 0.090540 0.105781
0.164560 0.098764 -0.191783
0.116060 0.674956 0.103342
-0.537533 -0.190964 -0.032539
-0.152766 0.704226 0.067192
-0.514353 -0.275436 0.173011
-0.305457 0.433203 0.313432
-0.626745 0.100998 -0.329117
-0.658618 0.188643 -0.008749
-0.220762 -0.244818 -0.322568
0.104293 0.516400 0.239908
0.288820 -0.573605 0.310632
-0.025914 0.148788 0.125617
0.482225 -0.326216 0.178116
-0.707317 -0.602659 -0.140482
0.556446 0.631858 0.130772
0.645218 -0.523856 -0.047400
0.571193 -0.199614 0.211064
-0.363941 0.244647 -0.289036
0.033907 0.506897 0.342948
-0.613811 -0.354876 -0.423981
0.707507 0.463711 0.225210
0.484477 -0.698688 -0.201293
0.643777 -0.234463 -0.130341
0.099898 -0.381637 0.216987
0.094336 -0.022574 0.129358
0.042912 -0.651655 -0.253822
-0.096873 -0.268188 -0.298329
-0.456919 -0.326501 0.178894
-0.116504 -0.212307 0.068916
-0.066609 0.345609 0.354501
0.261958 -0.405298 0.178828
0.670907 0.638058 0.023859
-0.382550 0.307188 0.067969
-0.108129 0.267559 0.123274
-0.149203 0.210567 0.106623
0.512640 -0.049928 0.218059
0.555977 0.408416 -0.064167
-0.303849 0.207883 -0.280663
0.289966 0.035456 0.299477
0.440282 -0.121227 0.404271
-0.549423 -0.394111 -0.414989
-0.350357 -0.369178 0.196738
-0.437095 -0.460576 -0.399037
-0.526754 0.177695 -0.333887
-0.668738 -0.600078 -0.179739
0.437677 -0.535106 0.273611
-0.113990 0.684839 0.171791
-0.161621 -0.102456 -0.290566
0.423689 0.264181 0.240225
-0.017014 -0.127075 0.185383
-0.047343 -0.634652 -0.312992
0.725702 0.326289 0.056132
-0.467731 0.567823 0.234154
0.441792 -0.547805 0.246105
0.253581 -0.524380 0.150183
0.042707 -0.079581 0.172911
0.617544 -0.176307 0.224398
0.649725 -0.276599 0.074986
0.638951 -0.599489 -0.060971
0.624416 -0.010519 0.247979
-0.095868 -0.637982 -0.263066
0.515845 0.065828 0.234172
0.693158 0.111884 0.089806
0.492795 -0.580604 -0.209735
-0.033463 -0.682102 0.013375
0.663029 -0.028116 0.155143
-0.150235 0.231464 0.109176
-0.419501 0.372179 0.124358
0.718356 0.244930 0.044486
0.154291 -0.208878 -0.234991
0.632256 -0.203528 -0.128767
0.520802 -0.737018 0.028874
0.481148 -0.104913 0.312604
-0.041359 0.413368 -0.195371
0.508691 -0.007145 0.235233
-0.556412 0.388021 0.180760
0.657417 -0.139332 -0.114669
-0.428134 0.662044 -0.247658
-0.207924 0.330512 0.274907
0.311826 -0.641390 -0.257774
-0.348538 -0.413271 -0.373193
0.115177 0.023656 -0.212679
-0.352962 0.733093 -0.006059
0.268512 0.034644 0.175422
0.081122 0.546037 0.202113
-0.048142 0.175710 0.124293
-0.671745 -0.262803 -0.321876
0.678872 -0.150556 0.006294
-0.226366 0.747584 -0.174339
0.304282 0.293915 0.217823
0.277215 0.580247 -0.102837
-0.249599 0.616080 0.138427
-0.619061 0.532740 -0.114509
0.407591 0.046967 0.412667
0.765900 0.617755 0.010033
-0.641531 -0.562805 -0.439765
0.166201 0.549908 0.221409
0.421182 0.036084 -0.143474
-0.139640 0.738230 -0.163257
0.011562 -0.102319 0.225009
0.005150 0.515388 0.303953
0.693325 -0.172320 -0.076974
-0.292506 0.716187 0.069726
0.228790 -0.671327 -0.232543
-0.386425 0.079316 0.036788
-0.230468 0.355883 0.121691
0.399893 0.670692 -0.033077
-0.000703 -0.378535 0.254911
-0.710105 -0.292894 -0.152175
0.444822 0.539253 0.281497
0.496962 0.138877 -0.113066
-0.137901 0.726507 -0.087437
0.669260 0.509680 -0.025683
-0.377999 -0.299580 0.199898
0.031256 -0.645277 -0.288876
0.234039 -0.483121 0.269679
-0.628290 0.216068 -0.254379
-0.078971 -0.402973 0.130515
0.440898 -0.514886 0.269694
-0.256231 -0.481919 -0.361951
-0.626316 0.739372 0.071673
-0.432992 -0.131805 -0.001588
-0.142474 0.514654 -0.204213
0.259176 -0.302377 0.252509
-0.026010 0.529776 0.227703
0.312791 -0.684012 -0.198054
-0.544141 -0.372754 -0.410980
0.161221 -0.224156 0.117296
-0.313217 0.499856 -0.243875
0.551938 0.656007 -0.024880
0.367098 -0.729951 0.071562
0.350747 -0.067605 0.391642
0.234899 0.561898 -0.114620
0.536649 0.356354 0.277428
0.748669 0.385711 -0.021293
0.278261 -0.616002 0.302659
0.321138 0.183272 0.206819
-0.648057 0.536499 0.029248
-0.096727 -0.462926 0.182190
0.646078 -0.714870 -0.188822
-0.598893 0.366081 -0.310292
-0.551448 0.412354 0.170739
0.006469 -0.373894 0.220348
-0.329877 0.751073 -0.137258
-0.017349 0.521606 0.276231
-0.063255 0.196561 0.123732
0.303131 -0.609021 0.225441
0.101480 -0.515294 0.212414
-0.597132 0.724283 -0.109712
0.676006 -0.016978 0.098293
0.455847 0.193405 0.237905
-0.402835 0.049058 -0.323651
-0.583721 -0.002078 -0.017597
-0.463475 0.719655 0.104997
-0.470831 -0.493834 0.148707
-0.286602 0.710687 0.102351
0.009266 0.424202 0.381710
0.285937 -0.589442 0.107088
-0.595827 -0.140610 -0.038706
0.722642 0.360992 0.091336
-0.238629 -0.223986 -0.323740
0.471780 -0.234361 0.282744
0.129336 0.155697 0.160809
0.301109 0.472058 0.240830
-0.659761 -0.581112 -0.309232
0.670547 -0.483034 -0.147218
-0.078457 0.662385 0.182369
-0.493503 0.204490 -0.322981
0.064162 -0.064483 0.124312
0.330645 -0.355355 -0.215554
-0.621780 0.346306 -0.210107
-0.308278 0.568487 0.137467
-0.377161 0.064027 0.036799
-0.521403 0.677058 0.086540
-0.327672 -0.561623 -0.388329
0.303414 -0.043056 0.187974
-0.725870 -0.510192 -0.116598
0.618785 -0.036280 0.243307
-0.389020 -0.187654 -0.352103
-0.076155 0.309409 0.135903
-0.362044 0.499904 -0.254647
-0.041114 -0.579294 0.229972
-0.042418 0.509190 0.372119
-0.385254 0.286628 0.064636
0.001831 -0.070394 -0.250217
-0.309430 -0.292175 -0.348444
-0.322621 0.717541 0.078296
0.132291 0.007078 0.141683
0.321507 0.678262 -0.037295
0.235516 -0.585612 0.297267
-0.461487 0.778116 -0.238278
0.254327 -0.555151 0.093800
0.715672 0.406693 0.152053
0.684504 -0.056576 0.033679
0.634378 -0.019296 0.249010
-0.374923 -0.420404 0.064841
-0.214018 0.570208 -0.212614
0.428910 0.560454 0.280806
-0.497890 0.385836 0.080245
0.221336 -0.248751 -0.225497
0.504311 -0.058413 0.226677
0.512592 -0.534340 -0.199208
0.112286 -0.382238 0.213755
-0.006317 0.309320 0.297043
0.658568 -0.176150 0.090473
0.658906 -0.371409 -0.025201
0.394738 0.658448 0.050157
0.118778 -0.410850 0.188955
0.105328 0.312785 0.209681
-0.223155 -0.622260 -0.292393
-0.401300 0.730581 0.038396
-0.343608 -0.397897 0.004472
-0.014142 -0.316975 -0.286559
-0.627089 -0.357163 -0.427217
-0.533137 0.459421 0.108831
-0.176569 -0.659443 -0.075690
-0.680413 -0.308214 -0.306077
-0.610572 0.276157 -0.305789
0.224822 -0.016255 0.159004
-0.374315 -0.152323 0.162611
-0.652182 0.369850 -0.047932
-0.235186 -0.305001 0.131649
0.704218 -0.124225 -0.102069
0.643249 -0.414263 0.026210
-0.563395 -0.573311 -0.416160
-0.497333 0.370106 0.183015
-0.506430 -0.584420 -0.376339
0.524701 0.488750 0.292410
0.479785 0.213676 -0.106903
0.699576 -0.046983 -0.034297
-0.206467 -0.207857 -0.314493
0.485655 0.052001 -0.127123
0.397635 -0.051940 -0.160386
0.125350 -0.443391 0.137868
-0.138644 0.731172 -0.117576
0.429559 0.239206 0.238197
-0.701120 -0.044994 -0.049225
0.690485 -0.206673 -0.083168
0.384774 -0.136649 -0.174499
0.047910 -0.693958 0.029760
-0.058814 -0.571824 0.191260
0.687907 -0.055821 0.017507
0.648846 -0.607606 -0.178880
-0.293017 -0.042190 -0.311552
0.666021 0.191875 0.269002
-0.269348 -0.018833 0.049572
0.303098 0.582238 -0.096858
-0.585985 0.406270 0.036247
-0.003599 0.417193 -0.186527
-0.634152 0.342245 0.017093
0.044533 0.526415 0.208884
-0.110006 -0.628175 -0.319149
0.218827 -0.529471 -0.263410
-0.533865 -0.000246 -0.006348
0.125533 -0.658212 -0.258697
-0.690049 -0.301891 -0.255343
0.587740 0.191075 0.266711
-0.196339 -0.346225 -0.330672
0.481761 -0.143970 0.286804
0.150056 -0.477645 -0.271694
-0.251808 0.329423 0.307457
0.254360 0.578576 0.244686
-0.302039 -0.631620 -0.185370
0.597029 0.001637 0.243550
-0.607967 0.412851 -0.238679
0.434166 0.593116 0.286313
-0.549756 -0.046927 -0.368858
-0.260737 0.751080 -0.177348
0.423235 0.425682 0.261618
-0.447842 -0.453206 -0.042324
0.565926 0.343110 0.282128
0.152579 0.472449 0.208094
-0.418792 0.402216 0.284290
-0.107282 -0.649158 -0.183217
0.008191 -0.456630 -0.300214
0.578318 -0.017814 -0.115959
0.026774 0.507073 0.345924
-0.267854 0.552916 0.216104
0.657882 0.480021 -0.032142
-0.073573 -0.306727 -0.298314
0.069741 -0.687420 -0.034972
0.676208 -0.312165 -0.075071
0.003864 0.512807 0.321617
0.301878 0.003031 0.178581
-0.146624 -0.471705 -0.336396
-0.594523 0.325689 0.023638
-0.496898 0.019774 0.004477
0.415537 -0.001321 0.414766
0.244807 -0.281494 -0.224673
0.269258 -0.299257 0.205111
0.390871 -0.716030 -0.033435
-0.523772 0.471086 0.270280
-0.556336 0.298974 0.028513
0.378326 0.512030 -0.089595
-0.322599 0.680832 0.130929
-0.493856 -0.582328 -0.397336
-0.453905 -0.622047 -0.160168
0.629671 0.599804 0.298437
0.612270 -0.483051 0.137280
0.722566 0.441930 0.138975
0.642188 0.432194 0.310819
0.315817 0.541803 0.253359
0.394290 -0.339788 -0.199432
-0.271539 -0.652675 -0.065044
0.424641 -0.735122 0.072129
-0.334836 -0.363787 -0.363583
0.013292 -0.068797 0.316990
-0.451648 0.743191 -0.015089
-0.186085 0.245184 0.103088
0.255052 -0.446217 0.320131
0.720554 0.096114 -0.053148
0.720434 0.287281 0.059070
0.502487 0.407372 -0.076114
0.392632 -0.568891 0.334176
-0.637322 -0.067682 -0.375984
-0.324573 -0.611416 -0.304730
0.706540 0.217543 0.086178
0.681983 0.166741 -0.068514
-0.452135 0.576959 0.165250
0.593810 -0.695043 0.103606
-0.002483 -0.020441 0.296215
-0.243046 0.348616 0.176599
-0.296156 0.746154 -0.124549
-0.014067 -0.127124 0.131029
0.123123 0.457923 0.332263
0.257599 0.060737 0.176486
-0.257462 -0.422287 -0.354287
-0.535213 0.470532 0.125453
0.226579 -0.586673 0.245628
-0.257832 -0.322266 0.153113
0.710735 0.581316 0.278130
-0.292402 0.725468 0.008845
-0.042014 -0.292207 -0.289415
-0.612902 0.748222 -0.018743
-0.006080 0.304101 0.331106
-0.054352 -0.258661 -0.287675
0.609621 0.520314 0.315357
0.037315 -0.665710 -0.158471
-0.338649 0.484488 -0.251534
-0.402603 -0.439635 0.133093
0.517137 -0.744315 0.078816
0.602517 0.598203 0.324154
0.636083 -0.405429 -0.154792
0.400816 0.640225 0.166058
0.356013 0.212170 -0.134427
0.691457 -0.063489 -0.097062
0.094618 0.357143 0.391628
-0.486348 -0.613429 -0.197859
-0.088939 -0.567726 0.181853
0.644681 0.213791 0.282304
0.374214 0.488515 -0.093632
-0.636945 0.684750 0.061571
0.496362 0.617556 0.259294
-0.435115 0.016574 0.017690
-0.279493 -0.338149 0.187804
0.688734 -0.233232 -0.090131
-0.418760 0.715629 0.114332
-0.099434 0.541998 0.190125
0.518469 -0.556822 0.151887
0.111081 0.660390 0.201689
0.345917 0.083354 0.209918
0.032335 -0.090063 0.124914
0.201807 0.532564 -0.125829
0.445855 0.668372 -0.044485
0.357510 0.051749 -0.155445
-0.151423 -0.232820 0.239194
0.335082 0.346418 0.231609
0.454534 -0.742051 0.100233
-0.503966 -0.428827 0.067297
0.601175 0.428601 0.301287
0.044134 0.591279 0.199968
0.393718 -0.386375 -0.205759
-0.695949 -0.176873 -0.153533
-0.367027 -0.408894 0.180658
0.461931 0.657329 0.018580
-0.608900 0.326427 -0.284592
0.444909 0.126877 -0.126153
0.360075 0.638544 0.200667
0.539229 -0.265660 -0.157572
-0.083466 0.054757 0.312073
0.320888 0.496649 0.248469
0.455106 -0.515481 0.199985
-0.651239 0.281644 0.005256
-0.707253 -0.599644 -0.160277
0.265620 0.221387 0.199636
0.363761 -0.200550 -0.187642
0.296066 -0.700146 -0.082630
-0.343265 0.359496 0.163328
0.607796 0.631057 0.106285
0.177937 0.665563 -0.113399
0.504914 0.100601 -0.116404
0.000348 -0.532068 -0.311985
-0.477667 0.060506 -0.338647
-0.276144 -0.338946 0.109392
-0.432799 0.356121 0.237296
0.271186 0.647450 0.193777
0.504362 0.230222 -0.099276
-0.188242 -0.208994 0.253843
-0.038219 0.658255 -0.162088
0.344699 0.346192 0.233702
0.266483 -0.610339 0.255301
0.625453 -0.290721 0.185233
-0.446679 0.605830 0.093557
0.676428 -0.387657 -0.120234
0.245842 0.099343 0.179028
-0.677285 -0.590674 -0.236417
0.376407 0.089464 -0.146254
0.212223 0.678800 0.022466
0.261626 0.350785 -0.136815
0.248865 0.220787 0.195857
0.680703 -0.336217 -0.111063
0.176159 0.588502 -0.124047
0.246770 0.464575 -0.124952
0.143457 -0.666297 -0.216091
0.657540 -0.472855 -0.077773
0.382891 0.675874 -0.057190
-0.608241 -0.551433 -0.448910
-0.503067 -0.430449 0.154873
0.171228 0.320582 0.192000
-0.535746 0.771957 -0.154910
0.429291 -0.606115 0.125641
-0.333093 0.549534 -0.241651
-0.360927 0.570040 0.157776
-0.641528 0.566556 0.014924
0.268819 0.644675 0.213335
-0.484107 -0.612825 -0.203115
-0.513456 0.012386 -0.352951
-0.682657 -0.166715 -0.212492
0.478863 0.019349 0.396326
-0.500602 0.777774 -0.213388
0.255186 0.671550 0.045103
0.007891 -0.555163 0.039397
0.677681 -0.253730 -0.048143
0.088936 0.657789 0.218710
-0.016845 0.256548 0.141960
-0.250159 -0.576560 -0.373206
0.402287 -0.717615 -0.029658
-0.471267 0.366064 0.194410
-0.733915 -0.452142 -0.128927
0.638905 -0.690287 -0.113770
0.320825 0.661698 0.071658
-0.195500 0.100932 -0.270978
-0.598909 0.382488 -0.300631
-0.581180 0.616076 -0.250776
-0.533938 0.748238 -0.000517
0.418516 -0.727195 0.023730
-0.199484 -0.500001 -0.351831
-0.578643 -0.618899 -0.098564
0.664253 0.381377 0.308927
0.699424 0.130696 0.070201
-0.367593 0.748003 -0.095302
0.236464 -0.091055 -0.201171
-0.567964 0.028730 -0.362809
0.223697 -0.514644 -0.260361
-0.510002 -0.592878 -0.318841
0.262114 -0.085634 -0.194787
-0.471531 0.748195 -0.036373
0.026487 -0.030894 0.234337
0.043188 0.239936 0.153002
-0.520132 -0.513011 -0.424346
-0.635995 0.565430 -0.012744
0.178943 0.233560 -0.170668
-0.432566 -0.599252 -0.321911
-0.658579 -0.091187 -0.285934
-0.628745 0.537860 -0.064242
-0.583561 0.036132 -0.012477
0.480544 0.015950 -0.133049
0.127899 0.706566 -0.110668
0.095087 0.336798 0.389023
-0.512796 0.056902 0.005909
-0.560408 -0.387093 -0.416480
-0.676481 -0.286693 -0.312704
-0.592560 0.517372 -0.252862
-0.525287 0.211577 0.023736
0.638612 0.434997 0.310402
0.552124 0.452266 0.293608
0.360141 0.108211 -0.147350
-0.599585 0.470584 -0.245888
-0.550571 -0.397437 0.130639
0.672458 -0.163653 0.029961
-0.646353 -0.002045 -0.293566
-0.609505 0.013870 -0.373957
0.642649 -0.592866 -0.075157
0.281860 -0.368941 -0.228131
-0.407221 0.734501 0.016135
0.155197 0.194232 0.171646
-0.483736 -0.619488 -0.159659
0.545885 0.606038 0.306098
-0.599990 0.383686 -0.294656
0.122196 0.562875 0.213421
-0.438001 0.235888 0.046240
-0.179984 0.555780 -0.207021
-0.170787 0.327324 0.274290
0.562697 0.618624 0.213881
-0.644055 0.294696 -0.131497
0.702172 0.016165 -0.010097
0.645652 -0.442443 -0.001974
-0.287951 0.343846 0.233862
-0.396991 0.271095 0.059978
0.699169 0.621252 0.117632
0.119339 -0.636472 -0.299612
0.504417 -0.422904 -0.186183
-0.264550 -0.331002 0.078303
-0.251751 -0.106322 0.253487
0.333172 -0.608893 0.207207
-0.555128 0.372692 0.199531
-0.466055 -0.594562 -0.333253
-0.191357 -0.266910 0.195166
0.113439 0.471200 0.387291
-0.188863 -0.398557 -0.335986
-0.693984 -0.174611 -0.161803
-0.569019 0.072074 -0.004483
0.321258 0.255124 -0.136382
0.052099 -0.560769 -0.304380
-0.089047 -0.442480 0.156637
-0.427976 0.560359 0.260051
0.017996 0.068177 -0.228207
-0.368305 -0.557382 -0.396735
-0.615488 -0.584405 -0.313290
0.394821 0.659309 0.044465
0.714048 0.601788 0.236571
-0.566264 -0.270731 -0.049497
-0.377258 0.092513 -0.312222
0.120381 0.694406 -0.026627
-0.659602 0.401699 0.006892
0.442903 -0.610026 -0.224665
-0.704256 -0.204213 -0.128943
0.262844 -0.690581 -0.126077
0.609590 0.625376 0.142475
0.376798 -0.028859 0.402550
-0.665379 0.272516 -0.040347
0.618123 -0.390092 0.162994
-0.326592 0.654046 0.126483
-0.677598 -0.318777 -0.325988
-0.547970 0.738327 0.072565
0.469055 0.631124 0.186186
-0.096553 -0.482280 -0.326750
0.622709 -0.094092 0.236480
-0.438484 0.744233 -0.029543
-0.563148 0.409998 0.226481
0.728066 0.290037 0.023424
0.102829 0.669964 -0.129393
-0.650879 0.019609 -0.258823
-0.288994 0.092436 -0.292748
0.371321 0.635993 0.210875
-0.459797 0.583780 0.124987
-0.357071 -0.343142 0.198721
0.651005 -0.223924 0.099497
-0.294989 0.615080 0.128273
-0.647121 -0.602354 -0.177336
-0.153582 -0.130178 0.271983
0.470717 0.554053 0.289183
0.643843 0.325863 0.297033
-0.240703 -0.311897 0.076467
-0.572970 0.664197 0.073445
-0.143077 0.350355 -0.226212
-0.568589 0.238188 -0.335072
-0.188039 -0.269457 0.078011
0.458699 -0.156375 0.392148
0.675777 -0.106374 0.047205
-0.663537 -0.396519 -0.440031
-0.325273 0.723149 0.043075
0.668969 -0.054300 0.110854
-0.198335 -0.272264 0.200994
-0.234340 0.517897 -0.224062
-0.333448 -0.110726 0.023192
0.429054 -0.697941 -0.174093
-0.303879 -0.294023 -0.347464
-0.343170 -0.127423 0.159047
-0.644238 -0.123560 -0.374850
0.448816 -0.723394 -0.018731
0.029949 -0.647891 0.031926
-0.633202 -0.603088 -0.180587
-0.650446 0.043421 -0.247033
-0.108877 0.529818 0.275421
-0.464141 0.743955 -0.012865
-0.082885 0.081930 0.157625
0.675230 -0.054373 0.080245
0.057750 -0.386214 0.271392
0.080994 0.158719 0.150539
0.013611 -0.586370 0.036506
-0.044040 -0.563485 0.128057
0.012783 0.300738 0.342222
0.146658 0.075870 0.154009
-0.114515 0.424945 -0.209980
-0.490584 -0.592035 -0.335613
0.627348 -0.383128 -0.153752
0.377001 -0.434067 -0.215796
0.222851 -0.572340 0.272198
-0.426118 0.244404 -0.302794
0.631491 -0.407407 0.087617
-0.317265 0.274908 -0.274705
0.307218 0.573912 -0.097057
0.151363 0.482070 0.209106
-0.330553 0.741582 -0.074669
0.466174 -0.411616 0.206605
0.319720 0.056888 0.398535
-0.065075 -0.380711 0.075677
0.392882 0.456671 0.259041
0.035104 -0.683322 -0.041768
