-0.320823 -0.101598 0.070851
-0.637215 0.127671 -0.319786
0.050893 0.692305 -0.131595
-0.545719 0.525126 -0.131652
-0.186175 -0.659840 -0.206576
-0.519050 0.586722 -0.173290
-0.435675 0.442505 -0.340917
0.010209 0.090423 0.112814
0.346813 -0.827656 0.144078
0.561084 -0.541546 -0.069998
-0.476025 -0.574284 -0.118678
0.405965 0.584922 0.030014
0.478460 0.213525 0.299451
-0.270985 0.306631 0.042257
0.110569 0.678400 -0.002099
-0.582161 0.180113 -0.339562
0.521685 0.043984 0.371324
0.418904 -0.026616 -0.172428
-0.094428 -0.352207 -0.220064
0.322426 0.602715 -0.192563
0.153281 0.358795 -0.245932
0.390258 -0.399830 0.202923
-0.567862 -0.414923 -0.284951
-0.575843 0.345674 -0.280008
-0.549562 -0.394654 0.188126
-0.040397 -0.202725 0.215471
0.538780 0.019822 0.231455
0.193171 -0.063253 0.143921
0.209804 -0.133297 0.152573
0.469660 -0.378459 -0.133845
0.512252 -0.552579 0.187189
0.733044 0.036381 -0.017050
-0.145885 0.515737 0.042421
0.233208 0.569874 0.094033
-0.007533 -0.189381 -0.221501
-0.467782 -0.031189 0.250798
-0.050459 0.731277 0.027828
0.406566 -0.349807 -0.145757
0.035587 -0.564018 0.164651
0.076763 -0.343735 -0.195348
0.601055 -0.309222 0.116559
-0.267856 0.329273 0.040726
0.323280 0.395489 0.330828
-0.146935 0.472537 -0.300619
0.091952 0.549583 0.215975
-0.355999 -0.366886 -0.257676
-0.179016 0.418796 0.046043
-0.136558 0.455357 0.049134
-0.293626 -0.171786 -0.265607
0.345884 0.466392 0.173569
-0.138533 -0.465054 -0.216671
0.020001 0.108317 0.297605
0.040389 0.694604 -0.158048
-0.126303 0.693312 0.029671
0.265309 0.205429 0.130953
0.790084 0.195867 -0.056770
-0.415309 0.277102 0.107679
0.648836 -0.179659 0.076109
0.065345 0.432232 -0.265489
0.197239 0.019072 -0.209429
-0.153052 0.286869 0.061542
0.448812 -0.652676 -0.112759
0.326865 -0.007211 0.366880
0.782296 0.205515 0.004527
-0.447290 0.732698 -0.320479
0.265554 0.490490 0.132157
0.581424 0.189236 0.290991
0.537591 -0.201781 0.207369
0.604719 -0.283337 -0.122146
0.092554 0.500862 0.287215
0.354230 -0.225234 0.182165
0.317020 0.604864 -0.182326
0.494311 0.209763 0.332156
-0.404353 0.225027 0.237634
0.529683 0.548549 0.112098
0.116258 0.525193 -0.266115
-0.214195 -0.143267 0.090386
-0.243131 0.782953 -0.222739
0.712268 0.491213 0.142880
-0.207576 0.076543 0.071983
-0.408767 -0.022747 0.175875
0.002103 0.237002 -0.257676
-0.206023 0.770886 -0.226704
0.246221 -0.803020 -0.044624
-0.431944 -0.057459 0.245529
-0.253443 -0.099366 -0.266017
0.093777 0.491629 0.288211
-0.331360 -0.323985 0.088899
0.523616 -0.153092 -0.145698
-0.064121 -0.292449 0.125867
0.804233 0.264059 -0.015711
-0.700262 -0.350260 0.090339
0.816109 0.301462 -0.016523
-0.342019 -0.336026 -0.258318
0.485865 -0.141472 0.244579
-0.083105 0.728670 -0.295337
0.071358 -0.410096 0.364412
-0.398727 -0.599903 -0.138866
-0.453789 -0.185444 0.141761
0.696925 0.208231 0.194905
-0.370490 -0.366249 0.086807
0.443951 0.082399 0.334522
0.080397 -0.746969 0.025678
0.353940 -0.803701 -0.113550
0.254650 0.564493 0.097697
-0.295357 -0.463921 0.106597
0.550052 -0.435768 0.180636
0.544921 0.031171 0.216825
0.521162 0.197967 0.253576
-0.671365 -0.508529 -0.042577
0.113250 0.215418 -0.239240
-0.554330 0.166169 0.102081
0.117606 -0.244145 -0.198057
0.480825 -0.772294 -0.097447
-0.113119 0.315041 0.064997
0.118403 0.158607 0.113231
0.185631 0.529434 0.090523
-0.770192 -0.238387 -0.216953
0.574090 -0.292756 -0.125871
0.439128 -0.132628 0.306138
-0.542310 0.522765 -0.155177
-0.101215 0.674966 0.035021
0.655550 0.070100 -0.145760
0.086990 0.233070 -0.244703
-0.013824 0.031120 0.312825
-0.745829 -0.048955 -0.018191
0.290171 0.615731 -0.126704
-0.167542 -0.664304 0.102606
-0.497309 0.673028 -0.143054
-0.375527 -0.119137 -0.282432
-0.169624 -0.532278 -0.215366
-0.633922 -0.088443 0.100484
-0.030155 0.374961 0.256150
0.473545 -0.825040 -0.077908
-0.434114 0.819689 -0.240479
-0.077114 -0.296044 -0.222442
-0.357610 0.394974 0.021580
0.142522 -0.217728 -0.196681
-0.023162 0.721406 0.000337
0.550981 -0.191360 -0.138252
-0.649027 -0.162387 0.054613
0.793445 0.450133 0.187925
-0.720331 -0.303184 0.208431
0.393168 -0.345787 -0.148104
0.047924 -0.364161 0.183194
-0.161259 0.753737 -0.295565
0.494936 -0.121020 0.229532
-0.458622 -0.173239 0.190866
0.220365 0.529850 -0.251041
0.278949 -0.527371 0.236338
0.533581 -0.638191 -0.085960
-0.417156 0.610033 -0.352939
0.158500 0.237562 -0.234462
-0.152465 -0.570077 -0.209480
0.473058 -0.284304 -0.141644
0.044337 -0.737348 -0.022455
-0.237249 0.170755 -0.287434
-0.412701 0.276329 0.109254
-0.481768 0.668181 -0.020985
-0.451861 -0.216212 0.076122
0.185330 -0.780522 0.028522
0.375774 0.043288 0.369701
-0.684404 0.058209 -0.175815
0.537071 -0.359579 -0.125484
0.074795 -0.429102 0.254852
0.297826 0.063006 -0.198342
-0.586312 -0.535092 -0.024636
0.516325 0.492602 -0.203734
-0.426442 0.382757 0.012420
0.040549 -0.458323 -0.190627
-0.549961 0.415895 -0.301850
-0.501609 0.585903 -0.273614
-0.423517 0.842933 -0.170778
0.573207 -0.418229 0.080573
-0.063737 0.726881 -0.186015
0.188070 0.644031 -0.236838
0.638657 -0.216991 0.067426
-0.325397 0.811771 -0.162875
0.548961 0.191362 0.310762
0.239489 0.169118 -0.216379
-0.432354 0.718341 -0.018059
-0.203807 -0.349998 0.110166
0.735392 0.461353 0.178300
-0.001121 0.438476 -0.275926
-0.366395 0.547381 0.006831
-0.664013 -0.136457 0.185674
-0.011808 -0.482626 -0.196272
0.138453 0.033481 -0.219444
0.472782 -0.070624 0.394177
-0.221520 -0.322172 -0.241617
0.224758 0.639527 -0.057318
0.693918 0.161761 -0.148138
-0.674544 -0.180660 -0.321482
0.117536 0.415260 -0.256229
-0.346322 -0.102848 0.067169
0.270675 0.437079 -0.235375
-0.535489 0.177956 -0.332430
0.313775 0.021451 -0.192305
-0.657805 0.155120 -0.154262
0.218620 0.294519 0.240773
0.205004 -0.107761 -0.197087
-0.527875 -0.364224 0.243803
0.530244 0.028687 0.295608
0.161542 0.524217 0.140916
0.526628 0.278120 -0.183284
-0.198625 0.504235 -0.311103
0.048269 -0.260070 -0.206966
0.192216 -0.787177 -0.081297
0.493751 0.060443 0.186833
-0.294239 0.274669 -0.305076
-0.052198 0.727715 -0.073952
-0.307882 0.764931 -0.003654
0.438589 -0.296574 0.201005
-0.277782 -0.056449 -0.273423
0.573288 0.395265 0.218916
-0.350224 0.256709 0.119773
0.066024 -0.338329 0.357288
-0.016558 -0.711779 0.126525
-0.388960 -0.578877 -0.243880
-0.094978 -0.533220 -0.204180
-0.830831 -0.454632 -0.257763
-0.077109 0.704593 0.035993
0.063459 0.424446 -0.265083
0.483092 -0.731022 0.035162
-0.430065 -0.415679 -0.264389
-0.031076 0.299128 0.078603
-0.372321 0.799106 -0.016253
-0.142329 0.171624 -0.273392
0.028376 0.101499 0.123870
-0.626311 0.218656 -0.002835
-0.083897 0.051196 0.166183
-0.292409 0.010896 0.065155
0.565440 -0.515889 -0.049066
-0.780699 -0.306056 -0.277728
-0.187939 -0.541749 -0.217255
-0.245686 -0.013422 -0.272444
0.006245 -0.050697 0.323026
0.277127 0.486936 0.136093
0.244947 0.011636 0.145017
0.289924 0.508057 0.107921
0.031855 0.700194 -0.087600
0.485352 0.322836 -0.193367
-0.476729 0.546442 -0.009497
-0.211560 0.537188 -0.315933
0.749292 0.184258 0.153816
0.438134 0.090671 0.166781
0.188494 0.073317 0.131180
-0.111401 -0.065661 0.203924
0.534066 0.407235 0.203726
-0.085054 -0.277081 0.121398
-0.510568 0.646337 -0.023342
-0.694256 -0.510359 -0.269232
0.371791 0.596098 0.035233
0.054075 -0.408280 -0.193030
-0.617491 -0.036007 0.100586
-0.843480 -0.414961 -0.115513
-0.815626 -0.331201 -0.124459
0.457507 -0.573786 -0.118424
-0.777912 -0.471598 0.025252
0.463147 -0.324557 -0.139568
-0.489307 0.624137 -0.275360
-0.644852 0.173850 -0.194376
-0.269975 0.581426 -0.328524
0.778967 0.129050 -0.112577
-0.403961 0.238915 0.236467
-0.367472 0.065552 0.098811
-0.356300 0.705448 -0.005610
-0.417977 0.280341 0.166562
0.353342 0.110032 0.298961
0.362104 -0.833184 0.128722
0.012695 -0.086068 -0.227604
-0.777658 -0.162228 -0.039201
-0.190777 -0.665392 -0.108444
-0.007225 0.523596 0.062352
0.389272 -0.844286 0.069782
-0.447651 -0.032509 -0.300801
-0.645604 -0.522932 -0.194209
0.045665 0.698303 0.054810
0.727802 0.055320 0.046343
-0.589966 0.045217 0.089003
-0.536294 -0.203611 0.255816
-0.554635 0.466549 -0.185275
0.712212 0.483012 -0.060154
-0.314768 0.244763 0.105684
0.430349 -0.838177 0.143586
-0.380249 -0.487115 -0.250678
-0.699141 -0.045932 -0.277474
-0.472778 -0.221415 0.185440
0.226149 -0.102892 -0.194371
0.652235 -0.162520 0.087319
0.249799 0.502126 0.294729
0.486417 0.338897 0.360085
-0.217416 0.696897 -0.330891
-0.023353 0.652870 -0.298143
-0.711595 -0.270641 0.216779
0.837221 0.303103 -0.133279
0.415937 0.457138 -0.215538
0.015701 -0.332532 0.349292
0.598046 -0.299217 0.151409
0.115543 -0.510223 0.274157
0.120725 0.665307 -0.245050
-0.403219 0.538359 -0.344544
0.446343 0.147252 0.163011
-0.413760 -0.586926 0.062562
0.374535 -0.391253 -0.146866
0.680477 -0.030561 0.161885
0.728863 0.045773 -0.132709
0.113142 0.679986 0.057483
-0.416266 0.827476 -0.327800
-0.246275 0.609577 0.019212
-0.624509 -0.373831 0.108466
-0.546311 -0.551751 -0.119118
0.025082 -0.733043 -0.068737
-0.792540 -0.405081 0.027455
-0.673467 0.026031 -0.295038
-0.362177 -0.156144 0.069511
0.192366 0.215186 0.119242
-0.486534 -0.480143 -0.267102
-0.730400 -0.487849 -0.302695
-0.317091 0.488317 -0.327320
-0.073011 0.508205 0.053925
0.323672 0.087899 0.336995
0.353563 0.452217 0.330329
0.444996 0.176291 0.160250
-0.149764 0.569242 0.037125
0.622451 0.271057 0.203924
0.346140 -0.672420 -0.126289
-0.627615 0.248650 -0.159072
-0.577503 0.304498 -0.343823
-0.663740 0.091254 -0.234186
0.677816 0.502272 0.143011
0.398676 0.095491 0.299081
-0.282786 -0.017838 0.069121
0.210257 -0.015559 -0.204438
0.520486 -0.033147 0.240963
0.225810 -0.110883 0.152977
-0.295179 -0.105587 -0.271677
0.687441 0.114817 -0.144960
-0.325635 -0.625708 -0.197017
-0.401129 0.609050 -0.003775
-0.448457 0.768124 -0.250870
-0.746967 -0.199628 -0.279684
-0.811444 -0.410672 -0.289482
-0.464118 -0.081045 -0.298970
0.381572 0.098578 0.239767
-0.410294 -0.048636 0.138491
0.231352 -0.800144 -0.091442
0.321566 -0.784624 -0.120048
0.333956 0.585511 0.107639
-0.024324 0.103681 0.300972
0.251965 0.189104 -0.216286
-0.466325 0.291980 0.070862
0.642408 -0.137353 0.187781
0.820120 0.302106 -0.038112
-0.704303 -0.201225 -0.324095
-0.091820 -0.308812 -0.223504
-0.802547 -0.295940 -0.135892
0.554833 -0.473378 0.086658
-0.553528 -0.056943 -0.314394
0.273192 0.535156 0.103042
-0.710203 -0.501791 -0.183950
-0.612474 0.280436 -0.006226
-0.786588 -0.310791 -0.252763
-0.526613 -0.559144 -0.145634
-0.083946 -0.689250 0.148948
-0.572971 0.378340 -0.238198
0.413051 -0.122148 0.358350
0.195646 0.169410 -0.222926
0.819709 0.287711 -0.061382
0.029124 -0.540128 -0.185111
0.549681 0.189802 0.277923
-0.677316 0.170121 -0.016982
-0.341016 0.755374 -0.354434
-0.157732 0.413081 0.049713
0.294036 0.620182 0.013893
-0.526166 0.413547 -0.005129
-0.102608 -0.071501 0.148035
-0.117390 -0.036857 0.114170
0.556816 -0.426975 0.157933
0.094393 -0.577409 -0.172115
0.197920 0.648426 -0.050207
-0.756083 -0.386788 0.031265
0.018798 -0.727658 0.014482
0.084336 0.499561 -0.268603
0.433029 -0.130162 -0.161194
0.254390 -0.569214 -0.149040
-0.263463 0.444546 0.031212
0.803732 0.325646 0.096643
0.376627 -0.116682 0.204663
0.311568 -0.234922 0.176674
-0.254198 -0.628764 -0.219435
-0.624579 -0.522545 -0.017997
-0.236948 -0.020802 -0.270493
-0.292401 0.671780 -0.339829
-0.534533 -0.174141 0.253478
-0.561754 0.394867 -0.272393
0.830557 0.450725 0.080263
-0.381782 0.825392 -0.273327
-0.664438 0.075078 -0.259000
-0.759909 -0.098473 0.005265
0.459288 -0.774258 0.093210
0.159942 -0.136010 -0.201298
0.389900 0.584205 -0.115014
0.613922 -0.341478 -0.013739
-0.574500 -0.270428 -0.298684
-0.607317 0.286324 -0.207136
0.645838 0.038631 0.202265
0.577575 0.177586 0.197224
-0.528419 0.506903 -0.262126
-0.171712 0.442196 0.045066
-0.599401 0.061338 0.171152
-0.752837 -0.095728 -0.061640
0.240933 0.639463 0.069318
0.314854 0.611368 -0.038837
0.348181 0.110862 0.278567
-0.527833 0.032473 -0.318459
0.526981 0.288243 -0.184124
-0.247010 -0.593854 -0.221445
-0.217537 -0.656277 -0.095363
0.616156 -0.248425 0.139073
0.483622 -0.723236 0.046001
-0.468535 0.784044 -0.108744
-0.266012 0.411501 -0.312947
-0.076805 0.203854 0.080205
-0.232996 -0.627554 0.130306
-0.085895 0.067889 0.274155
-0.682934 0.126839 -0.003159
0.270210 -0.266254 0.173285
0.576956 -0.194669 -0.134097
-0.639888 0.196664 -0.181946
-0.721912 -0.031104 -0.122024
0.311329 0.606835 -0.178746
0.820134 0.383665 0.106845
0.105549 -0.168813 0.348215
-0.553955 -0.002444 0.235445
0.554258 0.251838 -0.176856
0.543143 -0.427564 -0.118584
0.573043 -0.000149 -0.151836
0.673954 -0.162898 -0.036466
-0.090119 0.001001 0.304133
0.351921 0.465616 0.202237
-0.398392 0.013979 0.182374
-0.623983 -0.227462 -0.309834
0.490196 0.421113 0.198846
-0.288637 0.247070 -0.301809
0.605006 -0.097912 -0.138459
-0.003765 0.360462 0.107135
-0.057844 0.721240 -0.278659
0.475159 -0.679112 0.172442
0.197407 0.161928 -0.222004
-0.027660 -0.551458 0.154136
0.602744 0.298314 0.364107
-0.672754 0.051294 -0.254151
-0.138629 -0.320408 -0.229443
-0.223185 0.785561 -0.000207
-0.677500 -0.109849 -0.328168
0.171076 0.192656 0.118063
0.465703 0.566434 0.046795
0.048221 0.338256 0.086947
-0.163682 0.026330 0.262586
0.300674 -0.051166 -0.187848
-0.450028 0.091062 -0.312054
-0.829322 -0.462639 -0.160932
-0.115141 -0.044124 -0.250319
0.537908 -0.589265 -0.023483
0.827838 0.286216 -0.110117
0.091336 0.643028 0.066478
-0.359728 0.071251 0.065048
-0.675136 -0.515506 -0.244815
0.377410 -0.267994 -0.157310
0.441202 0.511024 -0.216533
-0.627838 -0.039935 0.152258
-0.728186 -0.424728 -0.307933
-0.686395 -0.260936 0.091187
-0.763454 -0.186162 -0.162275
0.491203 -0.708743 0.028799
-0.401668 0.026714 0.223591
-0.414031 0.258573 -0.321475
-0.091846 0.047673 0.169412
0.418066 0.119124 0.161286
0.645299 0.210029 0.187067
0.343506 0.067961 0.189108
-0.010033 0.007082 0.315509
0.804981 0.449833 -0.144496
0.308574 0.268053 0.299940
0.251184 0.627382 -0.147893
-0.692867 0.100050 -0.053437
0.209252 -0.187400 -0.189431
-0.431127 0.234060 -0.321855
-0.065178 0.064915 0.302205
-0.693362 -0.338054 -0.310398
-0.475142 0.625149 -0.016204
0.603881 0.208522 0.197988
-0.129685 -0.009049 0.091205
0.849642 0.442926 0.038855
-0.704559 -0.320003 0.089112
0.198252 -0.725159 0.203059
0.122688 0.666237 -0.206509
0.071771 0.461342 0.287610
-0.434419 0.119539 -0.312244
-0.839776 -0.340805 -0.004639
-0.557661 -0.438651 0.065352
0.531477 0.020620 0.274269
-0.083221 -0.161018 -0.235260
0.491746 -0.105366 0.275450
-0.595137 -0.378146 0.234699
0.137493 0.319287 0.209591
-0.300745 -0.016859 -0.280330
-0.622779 -0.091636 0.025059
-0.135283 0.448471 0.049931
-0.759443 -0.122970 -0.072637
-0.480489 0.643858 -0.290272
-0.623474 -0.068725 0.076322
0.668558 -0.176350 -0.029804
0.700940 0.202611 0.195998
-0.167736 0.761957 -0.143832
0.023018 -0.374540 -0.200625
0.127082 0.322447 0.205130
-0.382782 -0.488799 0.095787
-0.025380 0.460083 0.096098
-0.119578 0.752301 -0.000643
0.423540 -0.130905 0.225161
0.176657 0.009930 -0.211684
-0.016844 0.427487 0.277415
0.239361 0.626061 0.089992
0.768752 0.236264 0.135985
-0.718927 -0.473643 -0.302242
0.340558 0.058616 0.189204
-0.608808 0.365818 -0.057322
-0.653199 -0.225962 0.240399
-0.614058 0.319020 -0.009865
-0.229910 -0.420337 0.112487
-0.064752 -0.469891 -0.205270
0.213763 0.287740 0.116026
-0.351769 -0.102900 -0.280331
-0.675011 -0.238071 0.067320
-0.019693 -0.350050 -0.209138
0.456723 -0.831047 0.006764
0.043880 -0.095481 -0.222136
-0.704781 -0.027133 -0.212071
-0.412562 -0.218477 0.067515
0.700193 -0.052836 -0.128276
0.211693 0.155046 -0.219272
-0.149531 0.628133 -0.314729
0.209888 0.507239 0.104708
-0.071537 -0.700903 -0.040578
-0.446919 0.766012 -0.263343
0.754822 0.412080 0.185536
-0.429452 -0.073075 0.203629
0.291126 0.619614 -0.023187
-0.005056 0.077392 -0.244662
-0.089485 0.176172 0.080761
0.002858 -0.269850 0.138195
-0.183633 -0.389171 -0.230072
0.350415 0.249552 0.174552
-0.104521 -0.694283 -0.138473
-0.363760 0.145296 0.219577
-0.657563 0.091801 -0.268232
-0.145768 -0.006064 0.233060
0.244509 0.503909 -0.245162
-0.660174 -0.275524 -0.310978
-0.003384 -0.404797 -0.201883
-0.227397 -0.214361 -0.252000
-0.613832 -0.378937 0.066968
-0.543612 -0.395376 0.217433
-0.375796 -0.505233 0.098276
-0.553542 0.085919 0.227713
0.233926 0.067493 0.138451
0.193509 -0.152182 -0.194878
-0.350136 0.260711 0.219336
0.534510 0.006727 0.232372
0.390915 0.237446 0.196483
-0.683505 -0.223654 0.141102
0.753374 0.100583 -0.018122
-0.061173 0.640391 -0.302667
0.421066 -0.840866 0.191427
-0.107774 -0.677254 0.153315
-0.366054 0.258889 0.048154
0.598162 0.205547 -0.166243
0.546947 0.216281 -0.174807
-0.630265 0.267892 -0.109835
0.456376 -0.472869 0.219200
-0.742545 -0.188809 -0.285510
-0.392219 0.259820 -0.318340
-0.591791 -0.415007 0.058190
0.766439 0.197619 0.080377
0.451075 0.012042 -0.171053
-0.085573 0.188766 -0.266462
-0.566351 0.114225 0.077852
-0.436268 -0.431436 0.082772
0.525675 0.397709 0.360737
-0.702193 -0.077685 -0.316639
-0.242755 0.779274 -0.310635
0.016286 0.704910 -0.094502
0.198240 -0.788596 -0.068624
0.854214 0.399641 -0.057932
-0.240736 0.080648 0.066689
0.099864 0.461205 -0.262910
-0.312853 -0.620694 0.028165
0.389917 0.240239 0.257574
0.390022 -0.794624 -0.108984
-0.261838 0.791716 -0.154551
0.440497 0.082393 0.306991
0.172005 0.659565 0.019563
-0.549031 -0.396707 0.141595
0.739210 0.054023 -0.131898
-0.104194 -0.155360 -0.238879
-0.765903 -0.258120 -0.276354
0.459137 -0.700996 0.224347
-0.802101 -0.368088 -0.266718
-0.246057 -0.640668 0.064173
-0.083185 0.234148 -0.270110
0.688477 0.096151 0.203534
0.276754 -0.047360 0.362424
-0.690950 -0.213319 0.201686
0.306233 0.039016 0.348925
-0.633948 0.193788 -0.220730
0.461958 -0.138203 0.349374
-0.130016 0.452485 -0.296334
-0.141019 0.701750 0.026738
-0.239192 0.341515 -0.302785
0.042388 -0.510096 -0.185787
-0.350984 0.705391 -0.004814
-0.417817 -0.028937 0.216169
0.630007 0.014694 0.202022
-0.480918 -0.010248 0.246997
-0.469670 -0.257886 0.102964
-0.041604 -0.712132 -0.080718
-0.548185 0.422228 -0.300657
-0.656021 0.142250 -0.187260
0.355436 0.361759 -0.216124
0.045884 0.697052 -0.054033
-0.759283 -0.482054 -0.085411
-0.777067 -0.484302 -0.281888
-0.697402 0.010112 -0.187665
-0.124632 -0.033080 0.165522
-0.366816 0.473041 -0.333368
0.696080 0.406901 -0.169438
0.313577 -0.272045 0.180247
-0.564408 0.453233 -0.153559
0.652858 0.290299 0.181111
-0.389327 0.271559 0.176693
0.167251 0.654548 -0.142063
-0.445910 -0.154678 0.151809
0.797842 0.230248 -0.039609
-0.075974 0.556143 0.049256
0.129391 0.673143 0.017213
0.242692 0.629431 -0.164582
0.490013 -0.780521 -0.092097
-0.633009 0.295206 -0.045702
0.293093 0.487732 0.282310
0.215418 0.376562 -0.238256
-0.145818 0.059366 0.082684
0.664648 0.123116 0.197611
0.265566 -0.406816 0.393009
0.602747 -0.379660 -0.018292
0.105187 0.150237 -0.234690
-0.667459 0.016972 -0.337860
-0.335121 -0.128302 0.071080
-0.146427 -0.096312 -0.250369
0.530562 -0.611638 -0.021628
0.497167 0.199726 0.165943
-0.463242 0.813105 -0.031012
0.134488 -0.758297 0.174576
0.273131 -0.560646 -0.147008
0.245802 -0.798944 0.052742
0.128849 -0.150929 -0.204607
0.051651 -0.040448 -0.225834
0.426937 0.231276 0.329584
0.064154 -0.278912 -0.202941
0.459206 0.431001 0.197493
-0.604875 0.359709 -0.090481
-0.475895 0.707039 -0.203960
0.595910 0.207303 0.241003
-0.422488 0.126574 0.243620
0.568800 -0.255215 0.216725
0.339088 -0.825887 0.126554
0.491743 -0.346392 -0.133389
-0.287672 0.110045 -0.289579
0.626780 -0.086631 -0.136215
0.569054 -0.415528 0.108919
-0.255192 -0.006292 0.072207
0.732532 0.481838 0.071888
0.461319 0.270170 0.362413
0.628210 0.303951 0.229778
0.323277 0.051517 0.274536
-0.041518 -0.204506 0.235591
0.059021 -0.219449 -0.208949
0.477223 0.214609 0.316440
0.505740 -0.234955 -0.141136
-0.703239 0.056368 -0.072323
-0.638403 0.162264 -0.251537
0.332566 0.076070 0.265544
-0.435408 0.466077 0.003737
-0.820861 -0.283178 -0.009383
-0.581860 0.079886 -0.330677
-0.180336 0.680915 0.022728
0.434932 0.282671 -0.197324
-0.652308 -0.076556 0.225843
-0.213142 -0.257798 0.100645
-0.027207 -0.453801 -0.201105
0.009089 0.707226 -0.094328
0.556684 -0.448911 0.119674
-0.859511 -0.435984 -0.062027
0.128778 -0.538837 0.292098
-0.073915 -0.337788 -0.218285
-0.394383 0.148113 0.245901
-0.332370 -0.408422 -0.250497
-0.386668 0.314110 -0.322303
-0.667870 -0.514000 -0.150038
-0.312580 0.142507 0.050546
-0.025664 0.265264 0.082395
0.429487 0.299120 -0.199585
0.426595 0.536546 0.125737
-0.321324 0.373810 0.028844
-0.210216 0.442779 0.039287
-0.041556 0.690923 0.042487
0.592633 -0.371854 0.052921
0.764574 0.342369 -0.153558
-0.240882 -0.509059 0.118681
-0.035081 -0.112443 0.322326
-0.538536 0.578252 -0.077895
0.015795 -0.331925 0.349252
-0.663967 -0.516821 -0.188773
0.624554 -0.274005 -0.120019
-0.494321 -0.426191 -0.273019
-0.738735 -0.152444 -0.242436
0.537033 -0.603548 -0.043919
-0.278718 -0.521436 -0.232549
0.217857 -0.269548 -0.180905
-0.611123 -0.532205 -0.149972
0.003801 -0.719656 0.093301
0.442857 -0.828547 0.089807
0.508579 0.039947 0.389749
0.400807 0.453891 0.300076
-0.601442 0.028500 0.017636
-0.677005 -0.394825 -0.302958
-0.125990 -0.688776 -0.172594
0.065839 0.045372 -0.231293
0.408251 0.447884 0.210687
0.180250 -0.774491 0.137233
-0.014552 -0.421519 -0.202069
0.837634 0.376973 -0.004255
0.370652 -0.657894 -0.123925
-0.754131 -0.289952 0.023014
0.624019 0.198125 0.184952
-0.214299 -0.353470 -0.237782
0.675161 -0.174278 -0.063548
-0.758577 -0.477358 -0.307812
-0.168491 0.026903 0.285472
0.203262 0.639736 -0.222540
0.526749 0.409904 0.211679
-0.771851 -0.209053 -0.155381
0.531098 -0.633185 -0.062985
0.005683 -0.456264 -0.195995
0.134110 -0.264415 0.360896
0.309483 0.356503 -0.222496
0.485534 -0.088157 0.341266
-0.568812 0.099620 0.065831
0.632368 0.510952 -0.002805
0.119116 -0.464066 0.376275
0.805984 0.317450 0.069306
-0.074224 0.211592 0.079906
0.300663 -0.647322 0.211426
-0.283200 0.663556 -0.337735
-0.719414 -0.302133 0.205096
-0.049652 0.264290 -0.267781
0.037275 -0.198524 0.340681
0.531365 0.411933 0.298396
-0.527107 -0.269294 0.262976
0.522180 -0.526507 0.177273
-0.799785 -0.279126 -0.121647
-0.610814 0.346340 -0.080589
-0.050866 -0.162109 0.324359
0.225186 0.634353 -0.181743
0.335406 -0.565565 0.209383
-0.016487 0.713470 -0.142800
0.268144 -0.470337 -0.155715
0.789851 0.269050 0.074687
-0.860848 -0.403665 0.003027
-0.185560 0.759489 -0.331674
-0.498052 -0.174103 -0.295809
0.221733 0.534046 0.095486
0.322321 0.515835 -0.234640
-0.638215 -0.199828 0.240322
-0.245785 -0.275693 -0.249326
-0.672190 -0.514198 -0.189161
0.406284 0.365127 -0.208858
-0.717024 -0.021145 -0.132021
0.694701 0.051860 -0.138328
-0.784726 -0.236603 -0.131395
0.713524 0.066919 0.147906
-0.327460 0.191704 0.096337
-0.459422 0.744749 -0.230282
-0.414277 0.357285 -0.330218
0.461295 -0.715180 0.186890
0.554932 -0.400490 0.215709
0.796132 0.192002 -0.097930
0.798487 0.332595 0.138734
0.571185 -0.387851 -0.117916
-0.002166 -0.288874 0.285262
0.186771 0.340269 -0.239316
-0.060856 0.374815 0.067498
0.762510 0.471201 0.046737
-0.453864 0.761310 -0.232334
-0.615944 0.216428 -0.282530
0.304813 0.437562 -0.230340
0.010190 -0.237089 -0.214657
0.345968 0.593999 0.108677
0.414205 -0.071210 0.385516
0.511747 0.002802 0.354429
-0.350385 0.122962 0.104046
-0.714955 0.053472 -0.011063
-0.003766 0.011393 0.316061
0.742679 0.445527 -0.165914
0.009630 0.103513 0.194413
-0.565615 0.107171 0.061138
-0.246305 0.058910 -0.278916
-0.304058 -0.444603 0.103599
0.476026 -0.737397 0.063879
0.640574 -0.311889 -0.112198
-0.509225 0.107177 -0.322280
0.107937 0.670944 -0.207157
-0.144362 -0.470428 -0.217064
0.077975 -0.440340 0.281633
-0.475900 -0.482446 -0.265317
0.299187 0.133403 -0.204349
-0.123387 -0.689372 -0.166701
0.407645 0.453227 0.337862
-0.062879 -0.707181 -0.127028
-0.200817 -0.295490 0.105803
0.215740 -0.785038 0.157998
-0.498060 -0.059167 -0.305948
0.621573 -0.347713 -0.068198
0.795806 0.460921 0.056707
0.034334 0.235330 0.093960
-0.143959 0.010713 0.295268
0.331678 -0.203947 0.176933
0.464716 0.557069 -0.192386
0.079229 0.334436 0.122035
-0.008073 -0.721222 -0.039506
0.495592 -0.722726 -0.020941
-0.498427 0.667181 -0.147116
-0.470714 0.617344 -0.014857
0.648991 0.502173 -0.087913
-0.537182 -0.405573 0.065481
0.441880 -0.746878 0.240576
-0.155944 0.761231 -0.068290
0.410254 -0.061043 0.384032
0.618668 0.384567 0.314334
-0.257494 0.783689 -0.318411
-0.369850 0.265521 0.181917
-0.083106 -0.275801 0.121575
-0.476981 -0.043457 -0.304198
0.660026 0.181627 0.191763
-0.062533 0.434871 0.261870
0.152699 0.373209 -0.247290
0.267254 -0.039985 0.152888
0.796040 0.461114 0.063307
-0.224753 0.179206 0.060373
0.222552 -0.435787 0.389166
0.096516 -0.465835 0.231633
0.087536 -0.440736 0.161504
-0.284363 0.212091 -0.298088
0.279124 -0.666402 -0.136788
0.525654 -0.621232 -0.104103
-0.398029 -0.058045 0.055526
0.749995 0.201907 0.181213
0.671012 -0.045513 0.188953
-0.712779 -0.496765 -0.080218
-0.312036 0.806417 -0.189240
0.698321 -0.003124 0.109530
-0.712799 -0.425370 -0.305588
-0.389757 -0.001845 -0.294895
-0.429896 0.767274 -0.357596
0.390175 0.233816 -0.199672
-0.825585 -0.322897 0.015291
0.497006 -0.656886 0.088126
-0.056740 0.620282 -0.300234
-0.402214 0.809228 -0.021592
0.606624 0.221021 0.204663
-0.298850 0.712042 -0.344340
0.746068 0.078089 -0.016708
0.228467 0.296874 -0.229287
0.824655 0.402988 -0.149968
-0.757683 -0.395027 0.031753
-0.382621 0.000503 0.069010
0.512269 -0.070973 -0.154629
0.375176 0.038369 -0.184664
0.501639 -0.656338 0.062835
-0.034359 -0.704549 0.164051
0.158067 0.525900 0.154955
-0.024096 -0.144509 -0.227922
0.350203 -0.058187 -0.179862
0.212373 0.293997 0.178352
0.659589 -0.230444 -0.118650
0.447830 -0.227088 0.196250
-0.818860 -0.288093 -0.029467
-0.347311 0.600277 -0.341690
-0.099409 0.011008 -0.252841
-0.365873 0.124944 0.195362
-0.418864 0.281626 0.191261
-0.306299 0.127317 -0.293873
0.642323 -0.218152 0.044578
-0.326354 0.703565 -0.347683
-0.090321 0.475075 0.054272
0.524911 0.281286 0.370892
-0.510197 0.511768 -0.356767
0.484490 0.064674 0.217951
0.162371 0.529295 0.087076
0.139983 -0.447616 0.377928
0.635192 -0.274058 -0.014417
-0.458765 -0.412868 -0.268905
-0.542862 -0.556055 -0.198118
0.546417 -0.474504 0.132363
-0.847786 -0.449462 0.018263
0.702916 -0.004069 0.081804
0.470342 0.432168 0.314588
-0.226810 -0.648798 0.015884
0.202131 0.455566 -0.247201
0.436439 0.240734 0.361309
0.011798 0.703340 -0.168859
0.476620 0.022079 0.386572
-0.252389 0.654327 -0.332338
-0.154898 -0.531788 -0.213219
0.463216 -0.828733 -0.025928
0.543714 -0.024365 -0.154062
-0.766212 -0.267401 -0.291110
0.458437 -0.237746 0.198768
0.824889 0.430005 0.162295
0.060328 -0.377246 0.359873
0.205205 -0.548549 0.336445
0.436853 -0.187517 0.191127
-0.048258 -0.290779 0.128079
-0.485845 -0.245075 0.217437
-0.462209 0.801300 -0.113921
-0.507644 -0.154395 -0.298974
0.154678 -0.764224 0.188192
0.362306 0.179325 -0.199011
-0.142004 0.226347 0.068523
0.492064 -0.221227 -0.144381
0.610779 0.228106 0.193712
-0.078816 0.072393 0.279610
0.758373 0.100124 -0.047275
0.077609 -0.093955 0.337457
0.391442 0.096486 0.266324
-0.361927 -0.364576 -0.258761
-0.342432 0.819548 -0.105778
0.243703 -0.352657 0.384980
-0.641381 -0.113329 0.098512
-0.632792 -0.485308 -0.288401
-0.447746 -0.170609 0.133889
0.194773 0.457201 0.306270
0.056743 0.688804 -0.171706
-0.744123 -0.494932 -0.283366
-0.641602 -0.527152 -0.266722
-0.750770 -0.484255 -0.072290
0.029170 0.696111 -0.209750
-0.404815 -0.200642 0.067094
-0.099892 0.483956 -0.294629
-0.724183 -0.138614 -0.300332
-0.666984 -0.518103 -0.244370
0.562487 0.526868 -0.163507
0.253602 -0.633234 -0.143510
-0.660715 -0.509303 0.022722
0.485160 0.426432 0.290329
-0.687767 0.043487 -0.182933
-0.212909 0.248529 0.056020
0.313917 0.003240 0.241746
-0.171295 0.676354 0.024475
-0.744426 -0.194227 -0.284481
0.497735 -0.258748 -0.140228
0.360672 -0.534456 -0.136297
-0.414011 0.843899 -0.071580
0.689731 -0.055355 0.065341
-0.143072 0.233850 0.067703
0.759095 0.085224 -0.077863
-0.454037 0.025871 0.247810
0.336259 0.117725 0.353623
-0.603114 -0.320815 -0.298495
0.162259 -0.169839 0.338974
-0.032932 -0.341621 0.134843
0.774522 0.312570 -0.149450
0.564037 -0.360377 0.225292
-0.541981 0.510995 -0.016077
-0.818104 -0.462633 -0.071846
0.369676 -0.192754 -0.165097
-0.649872 0.138527 -0.228733
-0.607925 -0.374090 0.233535
0.361988 -0.806452 0.234584
0.504204 -0.413075 -0.125654
0.482235 -0.117968 0.306953
-0.019530 -0.662616 -0.181544
0.828686 0.442028 0.162152
-0.025074 -0.082125 0.321140
-0.218819 0.654304 0.019351
0.594446 0.392010 0.306196
0.048970 0.526993 -0.276283
0.649259 -0.112404 0.193311
-0.500625 0.015549 0.241791
-0.517763 0.130496 -0.325607
-0.197831 -0.401417 -0.231104
-0.284291 -0.083418 -0.272012
-0.292655 -0.175838 0.081589
0.150474 0.079639 0.124967
0.315242 -0.320621 -0.161915
-0.434404 0.621641 -0.009835
-0.232130 0.779469 -0.221606
-0.661276 0.116183 -0.203823
0.141552 0.236663 -0.236904
-0.509669 -0.564460 -0.142641
0.383336 0.241562 0.238113
-0.040796 0.459113 0.181759
-0.404491 0.834222 -0.235182
0.311423 0.479591 0.226484
-0.420940 -0.535089 -0.252499
0.183825 0.650386 -0.113487
0.677607 0.284725 -0.161409
-0.083727 0.689280 0.036359
0.637555 -0.220888 0.066740
0.477807 0.429548 0.309018
0.329246 0.475013 -0.230009
-0.024695 0.202751 -0.258641
-0.242954 -0.229622 -0.252968
-0.514290 -0.389807 0.121303
-0.148689 -0.251098 0.109641
0.300384 -0.090035 0.258645
-0.689951 -0.503681 -0.070129
0.051394 0.561066 0.178182
0.792632 0.446172 0.188153
0.334749 0.255531 0.198090
0.312247 -0.825986 -0.088651
-0.012202 0.142677 0.095210
0.297668 -0.819842 -0.052417
0.296830 -0.523844 0.202260
0.590827 -0.222746 -0.129557
0.406003 -0.124784 0.237369
0.272248 -0.813459 -0.096229
-0.396442 0.000385 0.147141
-0.367990 0.069837 0.109365
0.251745 -0.077890 -0.192769
0.593499 -0.339512 0.105526
0.221782 0.246773 0.120832
-0.147610 0.562475 -0.308652
0.317981 -0.389307 0.191245
-0.207781 0.118016 0.068295
-0.451864 -0.583054 -0.143813
0.029270 -0.325830 -0.203991
0.571034 0.200046 0.369106
0.107860 0.649703 0.068347
0.676787 -0.014489 0.211388
0.147665 0.665442 -0.028170
-0.547748 0.484494 -0.192407
0.143768 -0.492039 -0.172301
0.092733 -0.518306 -0.177575
-0.032688 0.367027 -0.274319
0.342372 0.463528 -0.227044
-0.571928 -0.491035 0.067851
0.782288 0.469707 0.166588
-0.767181 -0.484015 -0.196432
-0.051453 0.233076 -0.265295
0.537870 0.032619 0.259371
-0.207593 -0.090144 0.086683
0.661466 -0.101872 0.142841
0.514673 -0.599097 0.090742
-0.699506 -0.293088 0.108335
-0.823975 -0.322292 -0.061286
-0.148217 0.557276 -0.308284
0.288671 -0.507500 0.327254
0.392564 0.120132 -0.189290
0.587669 0.180940 0.240835
0.120888 -0.524924 0.297590
0.076856 0.552500 0.168382
0.160623 0.269146 -0.236932
0.825130 0.450850 0.040320
-0.485177 -0.097942 -0.300611
-0.763192 -0.169362 -0.133890
0.093702 -0.307735 -0.196004
-0.133815 -0.673972 0.131099
0.201075 -0.788493 -0.043608
0.045280 -0.733300 -0.165670
-0.549249 0.011763 0.234892
-0.525119 -0.393783 0.175616
0.484755 -0.684822 0.107888
0.489178 0.426634 0.327162
-0.481447 0.623116 -0.016962
0.115502 0.207213 0.108513
0.658512 -0.140578 0.090756
0.610347 -0.201816 0.218194
-0.056105 0.431082 0.218695
0.813350 0.329296 0.048613
-0.714072 -0.045100 0.007375
0.364751 -0.746471 -0.116990
0.473419 -0.109029 0.372825
0.542381 -0.468682 -0.115071
-0.499557 0.003222 -0.311673
-0.374646 -0.072863 0.060311
0.323800 -0.828935 -0.069910
-0.805690 -0.472823 -0.225194
0.610637 0.254849 0.242073
-0.031932 0.441985 0.101055
-0.721808 -0.032927 -0.125856
-0.467446 -0.207666 0.179663
0.681945 -0.033300 0.148694
-0.764539 -0.100312 -0.003462
-0.240625 0.167274 0.059065
0.256447 0.284174 0.285026
0.857578 0.434057 -0.117320
-0.259612 0.161693 -0.289961
0.252607 0.183427 0.131004
0.049510 -0.696677 -0.168271
0.527932 -0.513853 0.167169
0.618792 -0.368676 -0.089709
-0.458382 0.819650 -0.102981
0.108898 -0.062574 -0.215367
0.276931 0.548599 0.102413
-0.307990 0.504636 -0.327406
0.497603 0.320956 0.363331
0.339296 0.469489 0.197860
0.093049 -0.675261 -0.163684
-0.433215 -0.148996 0.089955
0.260212 -0.807234 -0.037846
0.576097 0.349204 -0.182195
0.418932 0.000865 -0.174848
-0.607015 0.335099 -0.010235
-0.592001 -0.378520 0.250300
0.602692 0.014166 -0.148688
-0.590582 0.421152 -0.062239
-0.537069 0.334805 -0.346499
0.628153 -0.312604 -0.043064
0.799878 0.277056 0.032088
0.770932 0.171589 0.008616
0.017309 -0.732188 -0.109213
-0.074194 0.053327 0.149018
-0.439349 0.632554 -0.011533
0.353295 0.109974 0.360476
0.342331 -0.326207 -0.157393
-0.095872 -0.537795 -0.203909
0.002674 0.022704 0.316021
-0.522273 0.259267 0.085920
-0.294533 -0.128494 -0.269560
0.517007 0.060266 0.366806
-0.612213 -0.095489 -0.319723
0.336028 0.469734 0.178010
-0.310327 0.810733 -0.069066
0.757129 0.319491 0.194046
0.143440 0.229815 -0.236019
0.493728 0.236122 -0.184473
-0.430265 -0.589854 -0.140596
-0.619954 -0.059041 0.073591
-0.590248 0.104382 0.195812
0.189969 -0.431408 0.383934
0.323337 -0.281881 -0.164128
-0.828866 -0.324742 -0.037917
-0.138087 -0.682057 -0.102508
0.232677 -0.791205 0.139884
0.265565 0.494782 0.238288
-0.563856 -0.551642 -0.255485
0.565089 -0.495276 -0.010420
0.164709 0.663628 0.062097
-0.247900 -0.646101 -0.084646
-0.456849 -0.133140 0.252117
-0.379515 -0.529544 0.099867
0.182912 0.517925 0.154878
0.242385 0.533907 0.098570
0.482707 0.071046 0.361239
-0.478379 0.722441 -0.162494
0.227227 0.141546 0.130923
0.484140 -0.264396 0.204942
0.130560 -0.339345 -0.187733
-0.677828 -0.493970 0.052358
-0.501107 0.543066 -0.352637
0.161634 -0.774151 -0.001913
0.016310 -0.730069 -0.064802
-0.399306 0.833695 -0.207099
-0.418801 0.813890 -0.337591
0.002642 -0.286896 0.228075
0.521838 0.457365 -0.199806
-0.270914 -0.065270 0.075070
-0.018235 -0.138641 -0.227568
0.029017 0.517393 -0.278404
-0.084453 0.067951 -0.255639
0.758374 0.156120 0.052298
0.057351 -0.735157 0.134812
0.611927 -0.134348 0.212478
0.137501 -0.760258 0.150006
0.058198 -0.738791 0.051767
-0.333986 0.315855 -0.314621
0.173990 0.297436 -0.237439
-0.577657 0.177273 0.008052
-0.633663 -0.037384 0.189813
-0.779638 -0.253279 -0.189889
-0.506006 -0.568098 -0.203494
-0.450225 -0.187469 0.117961
0.007846 0.608285 0.057124
0.318247 -0.003583 0.205065
-0.090514 0.329681 0.067068
0.566700 0.093537 0.185651
0.324426 0.257441 0.163443
-0.213746 0.009370 -0.269704
-0.738970 -0.045702 -0.051286
0.149140 0.065333 -0.220663
0.774755 0.142149 -0.065404
-0.397661 -0.054883 0.055774
-0.349801 0.151248 0.151033
0.416385 0.400408 0.344243
-0.510337 0.332480 -0.342318
0.641625 0.427613 -0.179365
0.280093 0.001359 -0.195543
-0.130590 0.037857 0.230000
-0.630167 0.310340 -0.034904
-0.733088 -0.160176 0.014697
0.314411 0.555938 -0.239354
-0.512905 0.367751 -0.345811
0.205583 -0.161916 -0.192224
0.735400 0.068719 0.027098
0.499604 0.555545 0.046493
-0.243672 0.503857 0.028924
0.805536 0.203547 -0.130706
0.002151 0.105120 0.227455
0.021280 -0.049229 -0.229577
0.175423 0.389944 -0.245386
-0.047378 0.571637 0.052143
-0.289288 -0.047491 -0.275924
-0.160033 0.269143 -0.284627
-0.182450 0.712589 -0.327074
0.100394 -0.160332 -0.208010
0.228694 -0.789281 0.155857
0.397180 -0.397098 0.203712
0.641584 -0.286964 -0.073601
-0.431674 0.383902 -0.335153
0.451786 -0.870781 -0.089250
-0.160176 -0.568261 0.135907
-0.514236 0.303555 -0.340347
0.704798 0.492321 0.111057
0.576643 0.441117 -0.190221
-0.151204 -0.284391 0.112203
-0.380302 -0.538823 0.100569
-0.617134 0.250182 -0.215756
0.254417 -0.519507 0.360531
0.708220 0.491409 0.115625
0.586177 -0.194514 -0.132739
-0.700538 -0.503332 -0.145415
0.488659 -0.634732 0.174832
0.324370 -0.133193 -0.177089
0.417571 0.084322 0.372299
-0.662822 -0.145036 0.163667
-0.338585 0.686264 -0.347976
0.078718 0.157400 0.107435
0.130795 0.672158 0.004022
-0.741284 -0.423486 0.036703
-0.398583 0.549259 -0.344816
0.099027 -0.080580 -0.215247
-0.656791 0.098244 -0.261149
0.827147 0.342506 -0.006102
0.147113 -0.070733 -0.208964
0.309458 0.006909 0.273547
0.750827 0.033667 -0.122679
-0.804400 -0.368361 -0.254171
-0.129133 -0.409559 -0.220167
0.709447 0.426394 0.177525
0.609307 0.519815 0.033373
-0.533568 -0.501682 -0.272198
-0.271885 -0.215861 -0.258485
-0.631276 -0.371832 0.104218
0.321109 -0.818952 0.155359
0.475883 -0.709692 0.113958
0.423000 0.550404 0.123980
-0.699653 -0.499441 -0.042282
0.100983 0.542479 0.112071
-0.350410 -0.000085 0.057497
-0.439885 0.843769 -0.164943
-0.579905 0.107499 0.142721
0.311858 -0.818513 0.092891
-0.414582 0.230844 -0.319111
0.113566 0.346180 -0.250726
-0.565952 -0.541430 -0.019827
-0.666959 -0.130361 0.213214
-0.762414 -0.239688 -0.263357
-0.738450 -0.491294 -0.148538
0.140448 0.661309 -0.187487
-0.051983 -0.702509 0.074731
-0.529033 -0.560238 -0.191839
0.568858 -0.335516 0.223816
-0.380035 0.607688 -0.000517
-0.099674 -0.069424 0.308924
0.324361 0.258623 0.192122
0.183553 0.140644 -0.222187
-0.591409 0.204414 -0.343081
-0.617508 0.110408 -0.338672
0.435494 0.223672 0.209565
-0.711224 0.024368 -0.083967
0.391919 0.282420 -0.203700
-0.514596 -0.061613 -0.308192
-0.147065 -0.209770 0.106237
-0.439841 -0.131024 -0.290950
0.635777 0.352074 0.272459
0.008620 0.711410 0.005298
-0.562187 -0.393822 0.108588
-0.188491 0.770877 -0.087980
0.460658 -0.828251 -0.010568
-0.710481 -0.039927 -0.202513
-0.527802 -0.376187 0.222114
0.321679 -0.351115 -0.158268
-0.265345 -0.282050 0.095019
-0.120710 0.213381 -0.273860
-0.600112 0.304340 -0.215941
-0.389055 0.665863 -0.006990
-0.104640 0.721276 0.030427
-0.715943 -0.097128 -0.273266
-0.131807 0.020162 0.088226
0.562619 -0.301420 0.219880
0.734631 0.115564 0.114765
0.405272 -0.847239 0.123655
-0.710744 -0.008046 -0.144329
0.806590 0.256536 -0.042453
0.668518 -0.147938 0.020950
0.651848 -0.240241 -0.048694
-0.610435 -0.528977 -0.064780
-0.107574 -0.686546 0.028451
0.198023 -0.176643 -0.192050
-0.628653 -0.179441 -0.314764
-0.572572 -0.390445 0.109702
0.831428 0.393077 -0.148087
-0.475933 -0.069302 0.252948
0.403611 0.117170 -0.187385
0.172568 -0.776389 0.029460
0.744206 0.079967 -0.002812
0.040754 0.305449 -0.257964
0.433153 -0.127991 0.373351
-0.831017 -0.335652 -0.045126
-0.603812 -0.136564 0.239859
-0.096175 -0.470198 -0.209917
-0.147321 -0.677944 -0.074081
0.098500 0.474854 -0.264317
0.495829 -0.092206 0.275707
-0.221576 -0.646174 0.122190
-0.078480 -0.283297 -0.223770
-0.021021 0.487840 0.120749
0.721134 0.487744 0.127457
-0.311236 0.020665 0.061493
0.508272 0.487512 0.142211
-0.128915 -0.036841 0.226759
0.815348 0.389787 0.144858
0.511207 -0.624299 -0.105981
0.147268 0.008125 -0.215896
0.557473 -0.473956 0.070664
-0.495899 0.648258 -0.195097
-0.000392 0.580402 0.245382
0.380767 -0.253522 0.188607
-0.395933 0.723665 -0.013111
-0.541144 0.463726 -0.266775
-0.667890 -0.356352 0.196427
-0.140721 0.266788 0.065147
-0.444090 -0.385965 -0.269096
0.098834 0.332828 0.237681
-0.454017 -0.062561 0.255613
-0.685319 -0.215406 0.234690
0.290269 0.484113 0.170519
-0.180301 -0.309503 0.110090
-0.805777 -0.307605 -0.138327
0.612304 -0.239120 -0.124918
-0.485697 -0.231420 -0.288916
0.038565 0.470294 0.281881
0.079381 -0.744346 0.082427
-0.360486 0.375931 0.022832
0.447329 -0.733232 0.233954
0.628130 -0.172658 0.205929
-0.371180 0.830282 -0.068465
-0.210142 0.768274 -0.323892
-0.340344 0.811644 -0.284482
-0.428957 0.088650 -0.308707
0.275368 -0.470824 0.400113
-0.125083 -0.063425 0.096599
0.455701 0.480455 0.135014
-0.499837 -0.312610 0.176653
-0.420866 0.799320 -0.351793
0.189597 -0.593102 -0.156570
0.625560 -0.318624 -0.039070
0.688773 -0.105593 -0.018566
0.169913 0.397455 -0.246868
0.213493 0.644148 -0.032456
0.476316 0.023697 0.386384
-0.142382 0.017492 -0.259805
0.036709 0.533013 -0.278637
0.267218 0.490580 0.147560
-0.049227 0.148774 -0.257529
-0.482221 -0.567366 0.003131
0.646383 -0.294772 -0.114688
-0.458624 -0.580462 -0.133357
-0.502737 0.141040 -0.324302
0.595756 0.120810 0.187567
-0.344926 0.307051 -0.315472
-0.090305 -0.095773 0.152726
-0.636021 -0.365082 0.233358
-0.095884 0.162664 0.081000
-0.684681 -0.270722 0.064070
-0.572927 0.491845 -0.036606
0.358855 0.315296 -0.211518
-0.437451 0.803569 -0.250225
-0.361152 0.483722 0.013226
-0.560665 0.460966 -0.161026
-0.248209 -0.392561 -0.239378
-0.532463 -0.106881 -0.306856
-0.227732 0.205135 -0.289051
0.156032 -0.230076 -0.193582
0.116115 0.172351 0.111679
0.009488 -0.489340 0.154182
0.766277 0.228812 0.136766
-0.642620 0.100744 -0.337029
0.346697 0.605498 0.068557
0.602946 0.522274 0.043691
-0.806597 -0.468335 -0.121513
0.005385 0.573218 -0.286843
0.781873 0.149244 -0.093135
-0.763857 -0.146069 -0.088697
-0.538261 0.194083 0.012429
0.392347 -0.179754 0.183823
-0.677274 0.042661 -0.243885
0.038721 -0.738758 -0.101807
-0.263394 0.794255 -0.104149
-0.324865 0.610509 0.007440
0.447231 -0.797162 0.120828
0.193158 0.352698 0.315248
-0.550972 0.270501 0.003798
0.179164 0.315200 -0.238237
0.690972 -0.068457 0.035009
-0.387164 0.019075 0.127785
0.419961 -0.078282 -0.167714
0.571475 -0.440214 0.051293
0.003869 -0.728129 -0.115490
-0.437191 0.825530 -0.212648
-0.256974 0.311890 -0.302817
-0.545818 -0.183253 0.252604
-0.482063 0.294873 0.017573
0.162680 -0.573049 -0.162342
-0.796327 -0.229073 -0.052243
-0.544650 -0.401566 0.064017
0.613352 0.273359 0.259599
-0.678146 0.036332 -0.250195
-0.334023 0.195827 0.140868
0.694317 0.002719 0.142619
0.142549 -0.770312 -0.058347
0.334681 0.446619 -0.226696
-0.654229 -0.510844 0.036064
-0.149860 0.289875 0.061751
0.327317 0.612065 0.077166
-0.259627 0.384636 0.037066
0.669618 0.251815 0.186999
-0.180400 -0.664937 -0.014939
-0.109262 -0.031467 0.304150
0.098972 -0.213464 0.351175
-0.014941 0.118336 0.096950
0.490297 -0.752136 -0.043229
-0.547379 -0.081479 -0.311316
0.336611 0.604562 -0.034502
0.105203 0.237179 0.104338
-0.127757 0.078335 -0.262996
0.389673 0.091345 -0.187181
0.462585 -0.730058 0.153120
0.196258 0.155922 0.125049
0.303370 0.426558 0.325126
-0.610451 -0.033883 0.064461
-0.706311 -0.286321 0.158940
0.661519 -0.199780 -0.121068
-0.521237 0.611100 -0.117541
-0.580899 -0.064549 0.236915
0.262198 0.165606 -0.212691
0.649065 0.324481 -0.169161
-0.795983 -0.471121 -0.106198
-0.055768 -0.332079 -0.216089
-0.614036 -0.081202 -0.321255
0.174341 -0.469695 0.384986
0.613245 0.041773 -0.149554
-0.610071 -0.408650 -0.291783
-0.113050 0.229509 -0.274143
0.042292 -0.357127 0.202043
-0.573321 0.102222 0.096020
-0.804698 -0.297772 -0.126954
-0.822020 -0.284325 -0.004854
-0.385467 0.335487 -0.324010
0.745628 0.074441 -0.020700
0.350105 0.418798 -0.221948
0.137377 0.527049 -0.263138
-0.445976 -0.148011 -0.290364
0.828675 0.274483 -0.138036
0.239520 0.316462 -0.229371
-0.476303 0.545043 -0.356005
-0.485339 0.300550 0.131858
0.584001 -0.234315 -0.129552
-0.073510 0.123362 0.087795
0.519974 -0.651584 -0.032646
0.410684 0.027297 0.376304
-0.079007 0.731116 -0.202427
-0.076086 -0.575531 -0.197638
-0.085800 -0.694870 -0.004576
0.406569 0.573639 0.119487
-0.585511 0.333518 -0.246820
0.504251 0.092376 0.176465
-0.371628 0.042422 0.081237
0.232864 0.152418 0.130803
0.434426 0.080673 0.216381
0.025790 -0.572062 -0.182791
0.209776 0.451966 -0.245747
0.480675 -0.470122 0.222572
-0.223019 -0.182579 0.092541
-0.263014 0.040011 0.066959
0.673386 -0.019499 -0.135204
-0.024735 0.554842 0.265008
0.533799 -0.472364 0.207695
-0.511551 0.560996 -0.261549
-0.429193 0.215263 -0.319910
-0.133239 -0.682352 -0.071368
0.767556 0.219306 0.112610
0.611401 0.422335 0.163299
-0.459405 0.078898 0.242334
0.184746 0.301697 0.149591
0.312994 0.030597 0.295628
0.461932 -0.713140 0.186910
0.237104 -0.699167 -0.140148
0.305788 -0.266026 0.178557
-0.345380 -0.616474 -0.125398
0.408951 -0.308190 -0.149073
0.013316 0.197021 0.094212
-0.041390 0.673428 -0.302639
0.712274 0.044595 0.115291
-0.039954 0.175856 0.088156
0.186525 0.069105 -0.215435
-0.602179 0.055569 -0.331555
-0.223676 0.271989 0.052350
-0.426729 -0.326193 -0.271785
-0.327795 0.134187 -0.297677
-0.254165 0.756655 0.005066
-0.322105 0.275766 0.037376
-0.160649 0.130208 -0.272464
-0.318106 -0.298700 -0.258054
0.694097 0.136959 -0.145923
-0.682383 -0.201166 0.174733
0.143926 -0.279587 -0.191016
-0.212557 -0.130278 -0.257209
0.525987 -0.491733 0.217530
-0.639248 -0.364074 0.232683
0.387943 -0.839046 0.188721
0.591130 0.390580 0.244598
0.624279 -0.181782 0.211536
-0.300200 0.808932 -0.033314
0.219440 -0.792723 -0.002529
0.323180 0.026416 0.230451
0.365592 0.276479 -0.207092
0.146501 0.574228 0.080752
0.010739 0.630481 0.055597
-0.640896 0.164780 -0.232932
-0.388663 0.831809 -0.169331
0.582472 -0.434702 -0.001241
-0.004663 0.565321 -0.287641
0.565616 0.395905 0.173914
-0.151810 -0.162001 0.101318
-0.163641 0.029606 0.282427
-0.660716 0.069071 -0.290780
0.677063 0.380812 0.176728
-0.341174 -0.392005 0.093439
0.605196 0.127157 -0.158282
0.047853 0.264125 -0.253263
0.087696 -0.753381 -0.074867
0.267781 -0.474049 0.399269
-0.319047 0.548923 0.013737
-0.308154 -0.619889 0.085303
0.342203 0.607475 0.081770
-0.232895 0.531732 -0.318626
-0.354295 0.135479 0.148469
-0.217027 0.670018 0.018231
-0.005862 0.710195 -0.139493
0.423661 0.303282 0.353892
0.717189 0.482997 -0.021087
-0.166069 0.406069 -0.297602
-0.443129 -0.386248 -0.268928
0.218580 -0.476588 -0.162536
0.337143 0.039748 0.175010
0.650549 -0.240647 -0.042053
-0.455295 0.474592 0.000028
0.343137 -0.829463 0.070301
0.366184 0.408145 0.336093
0.391541 0.590890 0.063128
0.228841 0.230807 -0.223404
0.302684 -0.001251 0.297432
0.662701 -0.116804 0.109290
0.027526 0.631868 0.057971
-0.055746 0.261333 -0.268426
0.549745 0.540280 0.066831
0.543740 0.405413 0.235400
-0.339360 0.150749 0.090959
-0.627975 -0.094821 0.055432
0.581195 0.214333 0.336919
0.820678 0.450139 -0.012526
-0.171236 0.532152 -0.309492
0.498773 -0.667879 0.058561
-0.195849 -0.105801 -0.256883
-0.274398 -0.637787 -0.089290
-0.403540 -0.049893 0.097974
0.807348 0.361334 0.139613
0.722261 0.240133 0.195859
-0.541959 0.525710 -0.151925
0.320409 0.264387 0.303188
-0.356773 -0.380569 -0.256584
0.386581 0.244484 0.336009
-0.085518 0.057488 0.209580
0.495103 -0.630244 0.146287
-0.560214 0.143724 0.095524
0.634997 0.215365 -0.161630
0.200047 -0.240913 -0.186080
0.432949 -0.798350 -0.102270
0.546729 -0.571587 -0.042050
-0.360358 -0.140167 -0.278321
0.316984 0.213212 -0.208741
0.743656 0.145963 0.117665
-0.371433 0.242360 0.241002
-0.266317 0.567903 0.019907
0.062138 0.686508 -0.185675
0.207510 0.546387 0.092282
0.159508 -0.128352 0.152269
-0.263996 -0.639713 -0.054416
0.725149 0.047386 0.047275
0.520070 -0.678593 -0.081216
-0.541478 0.206738 0.101373
-0.273862 0.362729 -0.309813
0.100384 0.231319 0.104138
0.026114 0.699100 -0.160130
-0.379586 0.576963 -0.344434
0.419502 0.227339 0.173389
0.543252 -0.612759 -0.095557
0.715898 0.031244 0.071009
0.422441 0.179888 0.156578
-0.304283 -0.626637 -0.050720
-0.385939 0.206194 0.242034
-0.186853 0.757036 0.015044
0.558337 0.188263 0.308519
0.653796 -0.087957 0.211063
-0.699672 -0.498015 -0.007193
0.477440 0.284296 -0.191145
-0.397634 -0.020191 0.117312
-0.719514 -0.002668 -0.085051
0.083873 -0.752114 -0.073867
0.246309 -0.444870 -0.161209
0.401875 0.453246 0.337424
0.514807 0.013887 0.356790
-0.391091 0.008254 -0.295984
0.026211 0.508944 0.276634
-0.016921 0.381896 -0.273285
-0.747784 -0.212519 -0.297973
-0.462182 0.794201 -0.126696
0.215145 -0.137381 0.153728
0.460846 -0.782050 0.070522
-0.381058 0.043103 0.135904
-0.785418 -0.336038 -0.304291
0.071854 0.506184 0.283667
0.356574 0.249686 0.226680
0.645020 -0.190278 0.078854
0.842458 0.438937 -0.116616
0.481903 0.424324 0.212437
-0.079932 0.086732 -0.256623
-0.167297 0.439600 -0.300742
0.734596 0.471729 -0.161469
0.520671 -0.246319 0.208781
-0.497709 0.629788 -0.217683
0.592878 0.244911 -0.170500
0.528007 0.156854 -0.172383
0.292912 -0.813613 0.063756
0.346255 -0.098297 0.377798
0.267681 -0.200492 0.167109
0.414730 0.380430 0.345759
-0.378203 0.506976 -0.338055
0.150339 0.314748 0.199293
-0.217728 -0.552009 -0.220781
-0.140925 -0.281732 0.113498
-0.343529 -0.614655 -0.065789
0.200653 0.052200 -0.211843
0.836990 0.321694 -0.098908
0.459976 -0.635626 -0.112603
-0.504775 0.590925 -0.017593
-0.108256 0.739638 -0.223738
0.647389 0.344111 0.192477
-0.001496 -0.090208 0.325360
-0.550291 0.101680 -0.327904
0.293559 -0.360741 0.185093
0.328796 0.477333 0.308396
-0.431888 -0.512142 -0.256152
