-0.734673 0.076198 0.147655
-0.681779 -0.153717 -0.155718
0.022132 -0.583266 -0.359735
0.140276 -0.610380 -0.031246
-0.353177 -0.282428 0.322071
-0.262907 -0.160934 -0.231687
0.720195 -0.396264 0.131908
0.249991 0.070084 -0.266106
0.618763 0.256035 -0.253970
0.357099 0.483502 -0.201071
0.059937 0.541544 0.209127
-0.522753 0.258065 -0.108233
0.551221 0.146786 0.054320
0.454521 0.170691 0.074151
0.606881 0.372721 0.070445
-0.572419 -0.426946 0.013499
0.063703 -0.124525 0.215900
0.071210 -0.575012 0.150866
0.549139 0.295501 0.084057
-0.477630 -0.422198 0.102483
-0.234962 -0.194318 0.109650
0.684931 -0.325255 0.151460
-0.453437 -0.432153 -0.255570
-0.083755 -0.418197 0.041755
0.008351 -0.709679 -0.030279
-0.503400 0.230044 -0.116798
-0.590355 0.117598 0.301987
0.754471 -0.131474 -0.032459
0.019595 -0.084325 -0.260660
-0.565800 0.329026 -0.087475
-0.255629 -0.132025 -0.227106
-0.493053 -0.716510 -0.223325
-0.462888 -0.293969 0.132391
0.546608 0.410950 0.107286
0.583786 0.401598 -0.078865
-0.045327 0.055236 0.142393
0.702478 0.013442 -0.256181
-0.448439 0.327050 0.246108
0.279917 0.790071 -0.128383
0.479287 -0.093001 -0.334174
-0.529037 -0.625936 -0.276370
-0.272052 0.230577 0.241129
0.307362 0.670715 -0.156276
-0.523946 -0.099107 0.204644
0.650150 -0.189990 -0.001035
-0.450565 0.329572 0.250434
-0.843000 0.381305 0.115809
0.214670 0.468711 0.381590
-0.103409 -0.320179 0.064211
0.654456 -0.197518 0.018364
-0.368590 0.099810 0.278958
0.805274 -0.277054 -0.229777
-0.046774 0.416258 -0.151289
0.378712 -0.066315 0.039117
-0.090525 -0.157784 -0.257988
-0.342632 0.377386 -0.112767
0.507637 0.634898 -0.027079
-0.587553 0.521037 -0.046102
-0.669261 -0.017466 -0.139844
0.239632 0.628230 0.198206
0.463903 0.510629 0.139918
-0.100454 0.382081 0.313654
-0.435334 0.313141 0.359208
0.653586 0.214737 -0.019996
-0.481495 -0.121199 0.374000
0.017770 0.559587 -0.133023
0.285475 -0.062242 0.054485
-0.076763 -0.422375 -0.312468
-0.025011 -0.350252 -0.306287
-0.250913 -0.224179 0.106236
0.646110 0.106933 -0.320688
-0.782259 0.188958 0.049859
-0.375737 0.314409 0.232253
0.015124 -0.691769 -0.027795
-0.319668 -0.560720 -0.301891
0.723215 -0.067538 -0.339026
0.291684 0.228740 0.111065
-0.168561 -0.688648 0.001512
0.482558 0.705310 -0.035337
-0.609093 0.199780 0.412347
0.140144 -0.223450 -0.307004
0.325838 0.612190 0.181569
-0.049461 -0.581984 -0.348299
-0.651325 0.233615 -0.092987
-0.207764 0.070399 -0.194548
-0.299732 -0.511624 0.057011
-0.037323 -0.702069 -0.021640
-0.501633 -0.269291 -0.215831
-0.579991 -0.403365 0.020159
-0.211390 0.232297 -0.161961
0.240282 -0.531716 -0.383612
-0.601686 0.157897 0.331699
0.130671 -0.573961 -0.374847
-0.452917 -0.821102 -0.178234
-0.839595 0.358190 0.063518
-0.618282 0.388068 -0.067601
0.630143 0.234266 -0.210104
0.699216 -0.331633 0.147967
0.500828 0.664155 0.164515
0.230319 -0.189842 0.037864
0.289496 0.819947 -0.123970
-0.413752 0.296826 0.234713
0.755669 -0.122940 -0.187620
0.496386 0.715334 0.161698
-0.470283 0.050852 0.406277
-0.207211 -0.476816 -0.302861
0.081224 0.669303 0.231071
-0.496459 -0.206700 0.148045
-0.219542 -0.317093 0.082960
-0.283161 0.309968 -0.135390
0.195409 -0.462474 -0.362909
-0.510040 -0.247111 0.142173
0.232484 0.041646 0.083309
0.398620 -0.171274 0.015249
-0.459857 -0.292075 -0.226863
0.042650 -0.502003 0.113186
0.134530 0.145283 -0.233200
-0.613795 0.188745 0.315305
-0.768869 0.160077 0.088600
0.722206 -0.377706 0.080169
0.570185 -0.051334 0.012174
-0.207311 0.479422 0.238582
0.616122 -0.099703 -0.356872
-0.519181 -0.644406 -0.236869
0.484053 0.519367 0.138499
0.808358 -0.344843 -0.083075
0.409737 -0.159740 -0.336511
-0.064324 0.518753 0.224028
0.731494 -0.058979 -0.210998
0.539289 0.485873 -0.229058
0.070119 0.662794 0.231518
-0.478153 -0.329481 -0.231403
0.052847 -0.242045 -0.297047
-0.738365 0.096014 0.183670
0.196567 0.097962 -0.252248
-0.237351 -0.703791 -0.343044
0.254816 -0.434212 -0.366598
-0.163534 -0.620490 0.014207
0.350000 -0.586689 -0.059317
0.267591 0.170671 0.236620
0.151490 -0.087896 0.070339
-0.465465 0.214979 0.437985
0.478802 0.001638 0.036924
0.453903 -0.112186 0.018301
0.352077 -0.567602 -0.055866
0.073416 -0.023177 -0.256972
0.619483 0.268503 -0.196644
0.253536 -0.187423 -0.317589
0.053128 -0.375481 -0.323481
0.530172 0.394001 -0.245804
-0.812702 0.337753 0.289344
-0.284058 0.557772 0.266065
0.548352 -0.422312 -0.410092
0.090365 -0.029740 0.302771
-0.637301 -0.250618 -0.030844
0.144434 0.631681 -0.138548
0.131863 -0.565967 0.190235
0.033644 -0.576635 -0.007917
-0.188187 -0.428768 -0.296329
-0.600115 -0.334906 0.060658
0.503949 0.238310 -0.272501
0.762802 -0.385841 -0.084069
0.717660 0.008028 -0.104556
0.273167 -0.313944 -0.345678
-0.479763 0.034928 0.404608
-0.161717 0.363428 0.419903
-0.026708 -0.624604 -0.007977
-0.740093 0.251011 0.276623
0.543538 -0.487587 -0.069945
-0.014404 0.465215 0.205643
-0.413378 0.213421 -0.134146
-0.673073 -0.178941 -0.171185
0.700625 -0.343427 -0.030604
-0.237259 -0.175656 -0.238605
-0.110282 0.427394 0.380251
-0.641294 0.264057 0.298790
-0.184917 -0.677059 0.006358
-0.301056 -0.218532 -0.237120
0.090085 -0.058657 -0.266593
-0.487591 0.060416 0.410872
-0.434987 0.318658 0.384898
0.404450 0.262644 -0.252147
0.095772 -0.346188 -0.324348
0.195069 0.013637 0.249935
-0.319724 -0.472097 -0.284354
0.273728 -0.169399 -0.317178
0.272130 0.693975 0.206133
0.013049 -0.611969 -0.011688
0.569680 0.319200 0.085536
0.090131 0.369320 0.170349
0.508449 -0.163613 -0.352695
-0.264821 -0.042664 -0.207997
-0.288223 -0.417354 -0.278447
0.617359 0.284780 0.071282
-0.410275 -0.334354 0.109336
-0.603630 0.067573 -0.133276
0.005367 -0.036051 0.314798
0.178895 -0.584607 -0.384485
0.820587 -0.281637 -0.073385
0.008582 -0.629636 -0.366790
-0.342473 -0.679745 0.030436
0.152546 0.007833 -0.263198
-0.464153 0.039378 -0.160637
0.522189 0.185955 -0.285704
-0.280080 -0.410947 -0.278452
0.724654 -0.335053 -0.068066
0.684630 0.127318 -0.010800
-0.389299 0.529799 -0.075335
-0.275445 0.144111 0.182907
-0.179718 -0.700967 -0.351487
0.370403 0.372601 -0.225082
-0.137983 0.483024 -0.123838
-0.137596 -0.169214 0.099408
-0.355202 0.623280 -0.062172
-0.392720 -0.379106 0.097744
-0.680281 -0.053616 -0.145273
0.447890 -0.490229 0.155855
-0.312932 -0.042458 0.352433
0.518438 0.341851 0.098020
-0.221987 0.646790 -0.078329
-0.002868 -0.069006 0.309567
0.514864 0.593617 -0.107405
-0.667546 0.343656 0.283615
-0.794749 0.456267 -0.026551
0.423355 0.391309 -0.229653
0.266121 -0.292560 -0.340348
-0.200924 -0.079419 0.127059
0.681096 0.122188 -0.071266
-0.446283 -0.172775 0.358300
-0.185959 -0.490625 -0.308911
0.787959 -0.236640 -0.267776
0.369304 -0.457680 -0.389122
0.690086 -0.268385 0.145022
-0.282680 0.079452 0.171249
-0.565254 -0.361941 0.128087
0.106660 -0.017263 0.302693
0.412577 -0.419044 0.175449
0.392342 0.394245 -0.224228
0.729718 -0.118682 -0.378368
-0.500622 -0.612255 0.068485
0.753751 -0.121551 -0.203995
0.781491 -0.235740 -0.337915
-0.639451 -0.114258 -0.163644
-0.601651 -0.035236 -0.153919
-0.268943 -0.095419 -0.217787
-0.439955 -0.338807 0.216971
0.529705 0.485677 -0.227600
0.299795 -0.147198 0.035446
0.151768 0.449242 0.176529
-0.117057 0.148981 0.159132
-0.543267 -0.004195 0.358512
0.007614 0.243859 -0.193881
0.358773 0.543670 -0.189432
-0.582906 0.128517 0.429869
0.447980 0.781131 -0.130485
0.045198 -0.357157 -0.318619
0.030359 -0.475387 0.078041
-0.403453 -0.073140 0.371316
-0.023106 0.408665 0.195817
-0.344788 0.070567 -0.173113
0.367866 0.331710 0.325856
-0.404582 -0.015621 0.382869
-0.684632 0.160582 0.250075
0.408070 0.106208 0.068653
0.053149 0.407182 0.183614
-0.622735 -0.122722 -0.167929
-0.634763 -0.219357 0.121246
-0.454202 -0.212910 0.351599
-0.133607 0.456971 0.231067
0.373588 0.555023 0.162804
0.327111 0.332100 0.163221
-0.614801 0.158423 0.238742
-0.305205 -0.073141 0.319561
-0.400022 0.218602 0.388965
-0.349696 0.047175 -0.176972
0.686376 0.068699 -0.221887
0.587600 0.418523 0.031278
0.050533 0.665807 0.235173
0.698457 0.007432 -0.325667
0.332191 0.427097 -0.208336
-0.063872 0.599558 0.239939
0.181682 -0.003091 0.082396
-0.673965 -0.170513 -0.132884
0.330093 0.470433 -0.199437
-0.104113 -0.592548 0.010452
0.356231 0.161900 0.087764
0.695088 0.056567 -0.170445
0.305301 -0.536914 -0.394796
-0.363249 0.175557 0.202841
-0.361498 0.084886 0.300949
0.681230 -0.318363 0.153401
-0.510739 0.083502 -0.144635
0.232580 0.048144 -0.267726
-0.722813 0.362159 -0.056399
0.394287 -0.325347 -0.366851
0.550990 0.521643 0.020539
-0.406551 0.234982 -0.130948
-0.271208 -0.316316 -0.261122
-0.182129 0.508076 -0.111989
0.144013 0.273711 0.354407
-0.064503 -0.050798 0.269729
-0.549879 -0.025075 0.200912
-0.424766 -0.732890 -0.319527
0.373990 0.254958 0.103396
-0.060506 -0.408827 0.039977
-0.625256 -0.259786 0.070243
0.116980 -0.603056 -0.378463
-0.500958 -0.110066 -0.184446
-0.824217 0.380104 0.315294
0.169241 -0.587291 -0.383508
-0.503250 -0.518793 -0.264925
0.810373 -0.254068 -0.081114
0.441735 0.624497 -0.186404
0.599924 0.132183 0.043825
-0.608962 0.409315 -0.064855
0.611029 0.168766 0.049326
0.651357 -0.010336 0.007604
-0.212520 -0.500819 -0.306779
0.035431 0.422307 -0.162932
0.514510 -0.155576 -0.352052
0.152906 0.200166 0.338473
0.367773 -0.484516 -0.041885
-0.283293 0.377559 0.441687
-0.786065 0.335466 0.300506
0.480167 0.699231 -0.086520
-0.577903 -0.262776 -0.202630
-0.460668 0.366426 0.255806
0.109268 0.409631 0.175333
-0.054586 -0.309351 -0.293578
-0.518750 -0.336921 -0.226534
0.476542 0.331103 0.102438
0.659128 0.151456 -0.206201
-0.419548 0.261599 0.335941
0.750606 -0.108236 -0.027260
-0.029837 0.515214 -0.134363
0.040717 -0.547314 -0.003222
-0.806313 0.288468 0.167936
-0.556076 0.025226 0.328525
0.534875 0.028554 0.033489
-0.386207 -0.483896 -0.276304
-0.798414 0.262639 0.156145
0.035786 0.067343 0.330496
-0.121908 0.455396 -0.131813
-0.327889 -0.041610 0.185391
-0.526391 -0.623753 -0.237626
0.048091 0.210609 -0.206779
0.334770 0.339479 0.337621
-0.769058 0.183075 0.177064
0.043550 -0.118672 0.081111
-0.430990 0.416224 0.261020
-0.603745 -0.179359 0.170209
0.628827 0.075347 0.028069
-0.700459 0.470250 -0.038512
0.580204 -0.349914 0.162940
0.416593 0.722662 -0.163062
-0.224739 -0.521358 0.043372
-0.370845 -0.517781 0.066900
-0.073633 -0.641343 -0.356264
0.627650 0.285544 -0.036456
-0.166573 0.450763 -0.125754
-0.645153 -0.209948 0.039962
0.358975 0.691369 -0.160252
0.846487 -0.417091 -0.103320
0.218825 0.254152 -0.224834
-0.345785 -0.764016 -0.338019
0.255083 0.533794 -0.175190
0.075863 0.015674 0.314018
-0.631288 0.319798 -0.079072
-0.493472 -0.558793 -0.274363
-0.317684 -0.531278 0.055928
0.593862 0.355284 -0.146575
-0.245752 0.206832 -0.161631
0.420084 -0.437449 0.170636
0.015509 -0.219963 0.065458
0.746573 -0.430859 -0.090437
-0.667714 -0.056427 -0.147792
-0.520473 -0.626843 -0.182390
0.510504 -0.305239 0.182662
-0.097885 0.581190 0.241619
-0.498697 -0.679096 -0.140208
0.449081 0.488366 -0.214475
0.256865 0.211480 0.324473
0.308229 0.491537 -0.191848
-0.660016 -0.144937 0.126804
0.399124 0.459938 -0.212295
0.052495 -0.446935 0.226174
-0.306309 0.008040 0.160816
-0.482565 -0.713124 -0.090513
0.459072 0.792155 0.039311
-0.674089 0.101437 0.236731
-0.429961 0.067740 -0.160369
0.327485 -0.258586 -0.343214
0.405441 0.404073 0.127975
0.335008 0.603060 -0.173974
-0.416172 -0.811919 0.015806
-0.214940 -0.535318 -0.313224
-0.496160 0.276328 0.454913
0.213020 0.158243 -0.242896
-0.233419 -0.320482 -0.267848
0.786154 -0.221100 -0.227118
0.864082 -0.417760 -0.114253
0.064411 0.330029 0.166596
-0.567717 -0.427818 0.063627
-0.314512 0.383617 0.360446
-0.318679 -0.319875 -0.254411
-0.638795 -0.075371 0.196250
0.039298 -0.503565 0.068854
0.474622 -0.018743 0.033546
-0.142104 -0.437462 0.047059
0.571495 -0.473142 -0.071455
0.416066 -0.136983 -0.332999
-0.725664 0.331321 0.290253
0.746635 -0.098482 -0.194158
0.608226 -0.486461 -0.079826
-0.051670 -0.621951 -0.355859
0.368106 0.781303 0.208414
-0.482234 -0.069885 -0.179423
0.705492 -0.328454 0.083833
0.561751 0.445385 -0.157357
-0.422383 0.265491 0.318984
0.507953 -0.085966 0.015045
-0.055412 0.380250 0.195243
-0.481964 -0.665282 0.055083
0.273269 0.547187 -0.175382
0.350438 0.449062 -0.206842
0.787606 -0.191438 -0.093693
-0.556602 0.022722 0.312665
-0.234112 -0.052170 -0.214674
-0.804954 0.308177 0.261073
-0.437675 -0.725392 -0.316028
0.152443 0.567391 -0.152514
-0.587130 -0.365101 0.089601
-0.402534 -0.199730 -0.217552
-0.458460 -0.823808 -0.252031
-0.112281 0.074758 0.143706
0.779554 -0.288516 -0.067436
-0.300768 -0.109356 0.227410
-0.186894 0.130857 -0.185850
0.448490 -0.442316 0.165237
0.253986 0.184533 0.155971
0.393638 0.001559 -0.302095
-0.031903 -0.452459 0.026880
-0.275934 0.159599 0.186047
0.117584 0.456822 -0.168937
-0.649569 -0.170605 0.144676
0.183840 0.703703 0.221847
0.343049 0.718879 0.199981
0.693896 0.070491 -0.129160
0.318742 0.246405 0.294450
-0.475537 -0.703223 0.028562
0.174431 0.588400 -0.151793
-0.189474 -0.484161 0.045221
0.655750 -0.018046 -0.346912
-0.201517 -0.802130 -0.015785
-0.653721 -0.005365 -0.139878
0.624339 0.016454 -0.335182
-0.487594 -0.082253 0.382656
0.155924 0.025936 0.303543
0.525580 0.570422 -0.076734
0.378212 0.285350 0.108747
0.447462 0.781138 -0.136358
-0.354954 0.068301 0.310144
-0.339053 -0.750559 0.015896
-0.199675 0.134421 -0.183149
-0.624836 0.240499 0.393450
-0.094773 0.485104 0.222129
0.765890 -0.194121 -0.351650
-0.157073 0.270096 0.400719
0.566797 -0.378908 0.159299
0.356510 -0.203602 -0.336872
-0.124045 0.430873 0.237167
-0.310170 -0.023540 -0.197132
0.097885 0.624922 -0.132614
-0.054994 0.474473 -0.138492
-0.100129 -0.490036 -0.322201
0.170831 0.178878 -0.232225
-0.286955 0.249464 -0.146764
0.610243 0.238256 0.063192
-0.081725 -0.044629 -0.236983
-0.527190 -0.056944 0.333820
-0.723511 0.011039 0.018060
-0.215453 -0.459314 0.054193
0.397455 0.375344 0.123540
-0.618529 0.210510 0.347135
-0.773963 0.186461 0.134533
0.454778 0.518490 -0.209407
-0.107760 0.381731 0.229048
0.571322 -0.266457 -0.382855
-0.001946 -0.071985 0.308834
0.673098 -0.240418 0.061693
-0.474355 -0.597696 0.067262
-0.340624 -0.800197 0.006324
-0.484186 -0.649259 -0.293706
0.825041 -0.332695 -0.223826
-0.222488 0.064285 -0.193457
0.704237 -0.319483 0.104890
0.802635 -0.308853 -0.385132
-0.361761 0.062110 0.208211
0.833111 -0.345832 -0.183658
0.441827 -0.207171 -0.350904
-0.664218 0.186927 0.252097
0.695422 0.021547 -0.304629
0.704260 0.040611 -0.128821
-0.652225 -0.058955 0.201594
0.224130 0.122931 0.155607
0.262115 -0.144657 -0.310471
0.209487 -0.021257 -0.277845
-0.710905 0.369960 0.295589
0.450581 -0.350645 -0.380647
-0.053752 0.409583 -0.151520
0.010717 0.460864 0.200858
0.511382 0.624713 -0.024545
0.810522 -0.275505 -0.163888
-0.584908 0.094414 0.272690
0.673361 -0.020565 0.002144
0.764776 -0.134641 -0.129976
0.288774 -0.459875 0.186710
0.083583 0.364451 -0.181896
0.038579 -0.490450 0.112336
0.138416 0.507117 0.190061
-0.112893 -0.674204 -0.356631
0.753796 -0.354830 -0.428834
-0.348118 -0.831161 0.001371
-0.526518 -0.070940 0.286327
0.845046 -0.368685 -0.137746
0.362815 0.157259 -0.266487
0.625806 -0.328087 0.160134
0.467389 0.784054 0.102140
0.263672 0.394558 -0.204069
-0.833702 0.360226 -0.039461
-0.399861 -0.693170 -0.315561
0.268130 0.135178 0.306880
0.547893 0.047212 -0.317159
-0.524674 0.093245 0.423157
0.120217 -0.121138 0.211276
-0.709181 -0.039057 -0.016087
-0.225080 0.557043 0.256709
-0.420464 0.132536 0.414651
0.253935 0.680717 -0.145953
0.372806 -0.139861 -0.326811
0.576160 -0.067366 -0.344235
-0.504905 -0.349907 0.121040
-0.796114 0.448096 -0.027953
0.445361 0.741505 0.188476
-0.490555 -0.189324 0.229547
-0.512066 0.059945 -0.149086
0.563389 0.500268 0.077568
-0.797522 0.276553 -0.061661
-0.324948 -0.319445 -0.253347
-0.338789 -0.099740 -0.207732
-0.087622 -0.030079 0.138132
0.235604 -0.384535 -0.353773
0.460433 0.791259 0.051278
-0.318539 -0.391001 -0.268500
0.408178 -0.172529 -0.338797
0.379144 0.293360 0.110185
0.409858 0.643035 0.174546
0.665364 -0.235798 -0.008205
0.527449 -0.013578 0.026316
0.408712 -0.059914 -0.316607
0.473353 0.635526 -0.189161
0.276102 0.192539 0.106339
-0.329161 -0.041295 0.172143
0.050767 -0.658269 -0.026736
0.520984 0.622732 0.077033
0.836316 -0.383114 -0.294047
-0.537703 0.160350 0.438464
-0.319714 -0.061222 0.201238
-0.841597 0.384033 0.142533
0.564543 0.222793 -0.285034
0.177463 0.579865 -0.153955
-0.476497 -0.741670 -0.133864
0.805654 -0.239403 -0.077091
-0.457993 -0.130435 -0.195185
0.690645 -0.044121 -0.357519
-0.431786 -0.808582 0.018904
0.380085 0.385975 0.128356
-0.074816 -0.500075 -0.328140
-0.480792 -0.221407 0.214349
-0.626811 -0.248959 0.095190
-0.323058 0.390340 0.289589
-0.440661 0.106394 -0.151052
0.319198 0.234057 -0.244485
-0.057118 0.527559 -0.127661
-0.313497 0.423201 -0.108257
0.174988 0.641340 -0.141410
-0.632330 0.397184 0.288701
0.382244 0.419028 0.215381
0.587190 0.399471 -0.048466
-0.239776 -0.181750 -0.239417
0.707779 -0.362302 -0.023489
0.378334 0.411715 0.133720
0.682762 -0.251953 0.166296
-0.800325 0.263484 0.137712
-0.147656 -0.434399 0.048531
0.144691 0.067564 0.313530
0.148029 0.691223 0.224972
-0.181604 0.333479 -0.146602
0.043534 -0.493116 0.158282
-0.277711 -0.155258 0.309203
0.166958 0.794236 -0.109916
0.634467 -0.492608 -0.085140
-0.103283 0.536615 -0.118659
-0.774244 0.352309 0.301991
0.710921 -0.414500 -0.081634
-0.584878 -0.410469 -0.063507
-0.348028 -0.776010 0.012264
-0.146105 0.557817 0.244527
-0.362875 -0.765138 0.016734
-0.461107 -0.791559 -0.155123
0.045567 0.158409 -0.216709
0.387817 0.313777 -0.239436
-0.418574 -0.513474 0.075207
0.696021 -0.372272 -0.070954
0.308145 0.280021 0.187838
0.117820 -0.113389 -0.281749
0.712127 -0.214913 -0.042348
-0.455679 -0.786204 -0.072182
0.736070 -0.103133 -0.332842
0.634411 0.016360 -0.336774
0.217864 0.072940 0.303164
-0.560644 -0.172978 -0.187566
0.058373 -0.365585 -0.322343
0.069056 -0.085353 0.295100
-0.290332 -0.202116 0.328139
0.439023 -0.444995 -0.045197
0.269601 0.179262 0.228113
0.385869 -0.354436 -0.371289
0.078960 -0.237497 -0.300226
-0.548849 -0.547311 -0.192265
0.465883 0.343284 0.106512
0.024577 -0.442097 0.143354
0.775770 -0.209979 -0.301582
0.663893 -0.232237 -0.038241
-0.461102 -0.597000 0.065330
0.296477 -0.531546 -0.040051
-0.138434 -0.317243 0.070262
0.195477 0.461933 -0.180093
0.257006 0.307686 -0.220210
0.576134 0.387966 -0.219750
0.107890 -0.281360 0.038886
0.734453 -0.022067 -0.031839
0.700935 -0.348428 -0.046781
0.603039 0.087405 -0.317823
-0.214127 0.554285 0.254453
-0.492185 -0.306322 0.127674
0.714790 -0.024135 -0.263987
0.750885 -0.096315 -0.137204
-0.253592 0.624402 -0.077820
0.212832 -0.206264 0.037347
0.652065 -0.476967 -0.084795
-0.332760 -0.463032 -0.280525
-0.537339 -0.577885 -0.181608
-0.604078 0.174284 0.369018
0.653603 0.227461 0.030329
0.623310 -0.401093 -0.417603
-0.001484 0.242628 0.159602
-0.101186 0.279066 0.393764
0.211210 0.105560 -0.253033
-0.127605 0.095689 0.150239
0.061907 0.735090 -0.105206
0.256853 -0.516290 -0.383150
-0.085055 -0.103765 -0.248159
0.440423 0.805754 -0.119556
0.251537 0.122799 0.307766
0.184506 -0.561138 -0.380720
-0.161847 -0.141275 0.108721
-0.656981 0.303416 0.274006
-0.342654 0.026435 0.381514
0.141771 -0.064748 0.188663
-0.374353 0.145971 0.395199
-0.254694 0.057237 0.162484
-0.430207 -0.615362 -0.295432
0.636485 -0.296311 -0.398937
-0.114162 -0.311303 -0.284659
0.552438 -0.063144 0.012610
0.433091 -0.430125 0.170053
-0.102031 -0.635842 -0.350741
-0.769543 0.329405 0.296727
-0.510052 -0.072829 -0.175661
0.384347 0.462638 0.354235
-0.416947 0.091425 -0.157717
-0.293335 -0.299236 0.309400
-0.510331 0.200332 -0.121592
0.053228 -0.103318 0.294019
-0.046105 -0.032281 0.307271
-0.457127 -0.805717 -0.165564
0.441117 0.815513 -0.073195
-0.549762 -0.139519 -0.182648
0.551686 0.143498 0.053597
-0.183183 0.256734 -0.161534
-0.452707 -0.130723 -0.196067
0.060068 -0.430448 0.228252
-0.400375 0.089645 0.403031
0.574601 0.067196 0.034927
0.151092 0.749390 -0.116308
0.478385 -0.479767 0.153161
0.128796 0.658979 0.221598
0.211714 0.066734 0.091515
-0.437471 0.288498 0.237758
0.404248 0.481077 -0.208914
-0.480669 -0.239582 0.144130
0.506712 0.607608 -0.145152
-0.391659 0.157779 0.244568
0.495465 -0.342901 0.177562
0.511111 -0.467160 -0.060840
-0.185967 0.319976 -0.148591
0.335590 -0.226779 -0.338189
0.066980 -0.602275 -0.370500
0.144586 -0.087626 0.243756
0.573346 -0.072087 0.007576
0.236243 0.345765 0.354253
-0.739474 0.109973 0.226045
-0.604311 -0.115756 -0.169428
0.069756 -0.702145 -0.038380
-0.217759 0.158010 0.176646
0.590351 0.371026 -0.124540
-0.054850 0.419527 -0.149381
-0.173143 0.591433 0.255399
0.048060 0.139073 -0.220922
0.395286 -0.074729 -0.317441
-0.110989 -0.665030 -0.355114
0.144353 -0.543884 0.192652
0.314582 0.123411 -0.265648
-0.102625 0.138918 0.154887
-0.540560 -0.048552 0.214570
0.309155 -0.480203 -0.384182
-0.230280 -0.441920 -0.292356
-0.567791 -0.368207 0.127243
-0.543086 0.409295 0.277157
-0.246560 -0.264987 0.231717
-0.033795 -0.498654 -0.334266
-0.438534 0.303808 0.451347
0.099027 0.608520 -0.136037
-0.023738 -0.295549 0.056638
0.712563 -0.349933 0.079758
-0.557939 0.023869 0.301946
0.496095 0.688038 0.169977
0.244074 -0.476054 -0.373196
-0.779664 0.185421 0.065488
0.583177 0.169051 -0.298573
-0.368219 -0.311121 -0.244942
-0.064094 -0.133482 -0.257310
0.216361 -0.640289 -0.049045
-0.573113 0.345261 0.269183
-0.318679 0.335425 0.227498
-0.414790 0.487801 0.272646
0.558586 -0.110521 0.002280
0.633432 0.242168 -0.141497
-0.309912 -0.533313 0.054311
0.385660 0.334453 -0.235010
-0.365282 -0.835014 0.003290
0.100320 0.474210 0.189503
0.031307 -0.110424 -0.267651
-0.703273 -0.055292 -0.012757
0.550202 -0.460610 -0.065650
0.659448 -0.312279 -0.405682
0.476177 0.770231 0.147776
-0.636900 -0.232066 -0.187342
-0.685374 0.330083 -0.068590
0.116901 0.061658 0.316702
-0.515253 -0.604295 -0.034067
0.269234 0.190163 0.106942
0.416920 0.151000 -0.276175
-0.112357 0.601763 0.247948
-0.432581 0.232774 -0.127319
0.343795 0.489443 -0.197818
0.464968 0.410090 0.119867
0.094201 0.588764 0.213115
-0.336444 0.020813 0.333896
0.807596 -0.305439 -0.315162
0.395337 0.170857 -0.268877
0.493717 0.641966 -0.157807
0.576750 -0.200325 -0.370623
0.518298 0.609816 -0.004463
-0.539193 -0.485263 -0.252679
-0.702939 -0.055630 -0.010280
0.409032 0.684207 0.182818
0.369800 -0.399134 -0.377620
-0.787682 0.296413 0.293035
-0.286636 -0.169587 -0.229692
-0.399950 -0.550642 -0.287358
0.239431 -0.491060 -0.375439
-0.684697 -0.104833 0.003657
-0.319651 -0.575844 0.047421
-0.704976 -0.024384 0.089628
0.573020 0.442525 -0.040246
0.335452 0.398489 0.349185
-0.276102 -0.207052 0.123448
0.492581 -0.040612 0.026416
0.284695 -0.156911 -0.316421
-0.047687 0.274523 -0.179179
-0.607030 -0.214260 -0.188486
-0.681749 -0.064930 0.194473
0.468955 -0.010863 0.035989
-0.689844 0.020165 -0.129187
-0.040384 0.345700 -0.166242
-0.736679 0.019654 -0.098001
0.416530 0.430774 0.329029
0.795773 -0.233191 -0.165174
-0.444549 -0.503529 -0.271074
-0.754115 0.103591 0.034106
0.425701 0.473063 -0.213850
0.796733 -0.268721 -0.294236
0.485334 0.572927 -0.203413
0.383096 -0.468859 0.170201
-0.657147 -0.184516 0.003537
-0.339363 0.529554 0.269123
-0.641516 0.264950 0.299778
-0.101363 0.584253 -0.109537
-0.728153 0.137230 0.252255
-0.511165 -0.601392 0.023937
0.111461 0.261886 -0.206535
-0.540050 -0.142020 0.167645
-0.741348 0.064837 0.026840
-0.304509 0.561551 0.270007
-0.541842 -0.517562 0.004778
-0.020047 0.211214 0.156288
-0.383227 -0.367019 0.098651
0.008291 -0.409527 0.086155
-0.166314 0.484168 0.233118
-0.585260 -0.423284 -0.233226
0.821315 -0.344264 -0.311858
0.528675 0.547795 -0.130625
0.094568 0.448950 -0.166899
0.673684 -0.233404 0.171382
0.146128 0.597681 -0.145537
0.538868 0.567761 0.064156
-0.401213 0.216664 0.367760
-0.658169 -0.193737 -0.044438
0.613701 -0.062130 0.003242
0.132206 -0.084979 -0.278378
0.294056 0.214712 -0.244384
0.215106 0.511757 -0.173305
0.485604 0.735895 0.119873
0.686088 -0.076312 -0.010869
0.328625 -0.474486 -0.386092
-0.584327 0.170344 0.447723
-0.270456 -0.177159 0.305556
0.565482 0.470312 -0.016633
0.691033 0.026132 0.008620
0.687557 0.089734 -0.125543
-0.588600 -0.358325 -0.219857
-0.238262 -0.411626 0.067187
-0.657817 0.498315 -0.039622
-0.700636 0.423427 0.304560
-0.715563 0.072708 0.237527
0.611673 -0.104920 -0.004904
0.093027 0.378178 -0.180656
0.597459 0.389387 0.028779
-0.115562 -0.419926 -0.305924
0.155961 -0.592100 -0.382385
0.227229 0.385515 0.363522
0.673190 0.170452 0.028831
-0.512274 -0.654857 -0.199371
0.213702 0.395785 0.367666
0.762871 -0.144038 -0.188705
-0.110572 0.404259 0.285787
0.265283 0.503409 0.380895
0.060791 0.006898 0.314636
0.142350 -0.184938 0.052573
-0.666644 0.099323 -0.117155
0.234076 0.129043 0.311728
0.148440 -0.029246 0.293798
-0.495917 0.207950 0.441351
-0.363149 0.459603 -0.093302
-0.226789 0.499350 -0.106739
-0.594411 -0.416994 -0.230553
0.455674 0.775791 -0.063881
-0.110235 0.526492 0.232730
0.315665 0.176411 0.096970
0.555169 -0.037505 0.017254
-0.823440 0.294952 -0.001626
-0.704638 0.403635 -0.051034
0.530925 0.548227 -0.103293
-0.236735 -0.030036 -0.209886
0.479836 0.704712 -0.068700
0.294613 0.532340 0.188435
-0.277256 0.370908 -0.124260
-0.430226 -0.780105 0.024293
-0.120748 -0.748193 -0.017733
0.539842 -0.219816 -0.368714
0.054399 0.357801 -0.178653
0.674505 0.076202 0.021104
0.246694 -0.554334 -0.389087
-0.392223 -0.394954 -0.257773
-0.787232 0.362860 -0.046198
0.263107 -0.205253 -0.322610
-0.090135 0.374326 0.400650
-0.340710 0.021352 0.287418
-0.645482 -0.206592 0.049439
-0.336546 0.082511 -0.172038
-0.042636 -0.611907 -0.355284
-0.279033 0.153998 0.185423
-0.218541 -0.505857 -0.306835
0.147728 0.550430 -0.155132
0.625342 -0.073502 -0.000825
-0.006502 -0.419177 0.029495
0.564112 0.447540 -0.121969
-0.740600 0.066821 0.043178
-0.179047 -0.320335 0.075994
0.613242 -0.063243 -0.349211
0.024350 0.144058 -0.216233
0.664431 -0.202828 -0.032508
-0.044788 0.447314 0.206848
0.857673 -0.398435 -0.111125
-0.534393 0.125065 -0.132720
0.018062 -0.199329 0.069140
0.016979 -0.613188 -0.012543
0.586312 -0.409549 0.150191
-0.701144 -0.027453 0.121196
0.609122 -0.507987 -0.084223
-0.296038 -0.695952 0.019978
0.345525 0.678373 0.191583
0.632524 0.241546 -0.154298
-0.192448 0.163708 -0.178485
-0.032130 -0.640896 -0.362658
-0.583762 -0.435327 -0.148740
0.300778 0.241656 0.323582
0.520094 0.634102 0.111693
-0.603281 0.179289 0.397816
0.446538 0.780652 0.196035
-0.040921 -0.389352 -0.311535
0.645520 -0.300411 0.162529
-0.490039 -0.169720 0.312666
-0.119761 0.477767 0.224581
0.323459 0.685457 -0.155874
0.337923 0.516705 0.160796
-0.464864 -0.806693 -0.327860
-0.352821 0.511349 -0.084681
0.059032 0.244191 -0.201846
0.148748 0.792132 -0.107488
-0.712725 0.110057 0.244470
0.489319 0.123527 0.059388
-0.019541 -0.181476 -0.273761
0.442130 0.089732 0.060075
-0.245315 -0.203384 0.109474
0.578579 0.381208 -0.218528
-0.196062 0.385298 0.429593
0.003992 -0.151969 -0.271601
0.332281 0.428256 0.355567
-0.722112 -0.012568 -0.059023
0.303800 0.495784 0.373371
-0.332054 -0.507785 -0.289487
0.122951 0.416794 0.174613
-0.708775 0.226053 0.266795
0.515657 -0.227800 -0.366515
-0.434306 0.287931 0.271574
0.628122 -0.079738 -0.002493
0.535904 -0.021527 0.023424
0.338321 0.429754 0.354920
-0.411833 0.238282 0.331955
0.596021 -0.278833 -0.389160
0.097344 -0.338518 0.029228
-0.148084 -0.499482 -0.316579
0.562835 0.003109 -0.328215
0.563218 -0.273299 0.180746
-0.651048 0.138949 0.240551
-0.732628 0.015439 -0.068462
-0.433384 0.143268 0.418792
0.104315 -0.261428 0.043386
-0.543931 -0.488175 0.096776
0.529288 -0.343725 -0.391572
-0.260303 0.389118 -0.123306
0.023206 -0.393636 -0.322398
0.067372 0.629318 0.225326
-0.178608 -0.234163 0.092968
-0.405544 -0.505326 -0.277522
-0.199268 0.258907 -0.158592
0.443313 0.807561 -0.079508
-0.392060 -0.188609 0.346700
0.009871 0.633292 -0.117212
-0.203390 0.145847 0.171996
0.249768 0.739141 0.218558
-0.082802 -0.553566 -0.337472
-0.319310 -0.496292 0.063101
-0.463778 -0.374639 -0.242579
-0.028428 0.090133 0.142543
-0.137035 0.169684 -0.185958
0.212224 -0.115344 -0.296881
0.619839 0.257313 -0.236680
0.100552 -0.026661 0.301789
0.622307 0.223976 -0.293822
0.407120 -0.165691 -0.337279
-0.480478 -0.210045 0.262695
0.028529 -0.589055 -0.009574
0.219219 -0.466459 0.196272
0.678063 -0.226799 0.171911
-0.330765 0.114678 -0.166579
0.290984 0.453231 0.366957
-0.535176 0.061776 -0.145115
0.411080 0.218313 0.090355
-0.494394 -0.731134 -0.296232
0.296098 -0.488072 0.179989
-0.223566 -0.513127 -0.307488
-0.335209 -0.292650 0.105860
0.165220 0.379760 0.355882
-0.738586 0.100569 0.199098
-0.540414 -0.163718 -0.188894
-0.152629 0.548490 0.243702
-0.008950 -0.443465 -0.327231
-0.688871 0.369958 0.292147
0.509897 0.199957 -0.281015
0.095740 -0.067265 -0.269178
0.480916 0.424997 0.120324
-0.671288 0.084839 0.233011
0.608580 0.297488 -0.206638
-0.096181 -0.638021 -0.352085
-0.338945 0.116371 -0.164966
-0.653366 -0.232827 -0.143756
0.423639 0.248367 -0.257968
-0.336824 -0.771917 0.011324
-0.306153 -0.077149 0.143943
0.337476 0.053530 -0.283044
0.563792 -0.125136 -0.001424
0.259263 -0.001720 -0.281756
0.775322 -0.159658 -0.108410
-0.020834 0.324826 0.178881
0.263232 -0.126216 0.045307
-0.123315 -0.521334 0.027536
-0.609450 -0.366830 -0.171478
-0.104238 0.367951 0.214881
0.251702 0.759344 -0.130053
-0.174260 -0.296984 0.079864
0.262206 0.213010 0.133969
-0.333066 -0.727149 -0.332714
0.281776 0.613940 -0.163508
-0.683911 -0.073263 0.137002
0.156605 -0.579611 -0.027710
0.375606 -0.265027 -0.352004
0.162576 -0.261949 0.034183
0.662186 -0.183085 -0.028253
-0.275150 0.257306 0.311148
0.666749 0.012128 0.009643
-0.728352 0.320474 -0.063778
-0.459771 -0.497472 0.084806
-0.425590 -0.439342 0.090964
0.110948 -0.219814 -0.301725
-0.710057 -0.045226 -0.138963
0.081939 0.326211 0.163103
0.059076 0.580795 -0.135280
-0.347984 0.430541 -0.101419
-0.597435 0.086381 0.221781
-0.218395 0.085509 0.162406
0.693801 -0.275694 0.158546
-0.058718 -0.481809 0.025264
-0.376940 -0.046198 0.372504
0.456887 -0.343354 -0.380190
-0.042494 0.711110 -0.093643
-0.708518 0.142735 0.250276
0.197641 0.039150 0.211187
-0.056839 -0.755576 -0.029175
0.668359 -0.294096 0.160210
-0.475195 0.107326 0.418214
-0.599023 0.137485 0.281608
-0.825489 0.341282 0.157589
-0.421986 0.299214 0.236471
-0.485136 -0.462170 0.095750
-0.548733 -0.490928 0.031227
0.716697 -0.001468 -0.152943
0.629521 0.220485 -0.271495
-0.221594 0.176170 -0.171468
0.249771 0.153860 0.198100
0.639950 -0.225762 -0.385525
0.548104 0.334938 0.092019
-0.559264 0.084719 0.426873
-0.701554 0.339036 -0.064292
0.231169 -0.501195 -0.376153
0.169332 -0.427504 0.211768
-0.750151 0.074399 -0.035764
-0.118640 0.294265 -0.164192
-0.100736 -0.622754 0.003951
0.676778 -0.005895 0.004512
-0.535755 0.334633 -0.091059
-0.290042 0.284141 0.247243
0.238899 -0.398823 -0.357113
-0.405317 0.084220 0.402730
-0.400634 -0.086894 -0.195532
-0.520685 -0.102273 0.229315
0.547533 0.213159 0.068023
-0.027376 0.550915 -0.127687
-0.464719 -0.027954 0.389822
0.117687 0.235849 0.351031
0.340443 -0.506174 -0.041900
0.033373 0.607945 -0.125896
0.622013 0.324567 0.053092
0.196942 -0.525668 -0.375647
-0.254813 -0.544976 0.043399
0.669425 0.175478 0.005754
-0.415145 0.362813 -0.104324
-0.468518 0.104302 -0.147115
0.408874 0.830041 -0.140620
-0.072349 -0.112268 -0.251825
0.347441 0.350625 0.208421
0.795622 -0.225888 -0.138113
0.096243 -0.238349 -0.303094
-0.351404 0.441454 0.253579
0.163049 0.080343 0.313190
0.765498 -0.204200 -0.395830
-0.157429 -0.764328 -0.015195
0.400334 0.521293 0.151956
0.321961 0.285118 0.328870
0.624762 0.267393 -0.140877
0.029248 -0.435593 0.222188
-0.371562 0.093074 0.187826
-0.457147 -0.007655 -0.171034
0.477194 0.603609 0.156232
0.021456 0.603551 0.227401
-0.131347 -0.464465 0.040038
0.181116 0.621797 -0.146232
-0.548691 -0.558392 -0.234129
-0.584810 0.039005 0.210439
0.252581 -0.359593 0.212197
0.196699 0.210993 -0.229914
0.698463 -0.045843 -0.359080
-0.540238 0.039120 0.414883
-0.328465 -0.093528 -0.208116
0.436988 0.849068 0.011982
0.192491 0.557706 0.191620
-0.249930 -0.251408 0.246831
0.447638 -0.201649 -0.350719
-0.352559 0.065983 0.328299
-0.781992 0.207197 0.124766
-0.217172 0.329810 0.421916
0.158290 -0.496583 -0.363858
0.273510 0.125934 0.093571
-0.041596 0.537122 -0.128194
0.151712 -0.582336 -0.379790
-0.639826 -0.034723 -0.147855
0.151401 0.511692 -0.163367
0.346214 0.269319 0.110574
-0.558495 0.433828 -0.067889
0.500197 0.172484 -0.284933
-0.207679 0.028999 0.149556
-0.146332 0.140873 0.162101
0.324728 0.137138 -0.264518
-0.555626 -0.466956 0.047153
-0.673004 0.304930 0.276808
0.239241 -0.000972 0.073824
0.603057 0.335146 -0.121167
-0.418850 0.237311 0.248196
0.447410 0.639362 0.167954
0.499666 0.678129 0.052465
-0.193409 0.525728 0.245569
-0.428892 -0.649152 -0.302321
0.805401 -0.283942 -0.255467
-0.496436 -0.640376 0.038127
-0.505220 -0.481897 -0.257320
0.068442 0.603278 0.220009
0.470598 0.782448 0.132366
0.193597 -0.115541 0.058294
0.401649 -0.441963 -0.391065
0.699090 -0.302110 0.114708
-0.620458 0.241268 0.446361
-0.009726 0.037584 0.317685
-0.026438 0.614886 0.237124
-0.624288 -0.311168 -0.121184
-0.058233 0.049149 -0.222105
0.442640 -0.221061 -0.353778
-0.168634 -0.669156 -0.346927
-0.071173 -0.047660 0.237209
-0.531839 -0.586157 -0.151551
0.302369 -0.081061 -0.304180
-0.218078 -0.660314 -0.337455
0.371872 0.381975 0.128847
0.176875 0.529702 0.188521
0.505503 0.620950 -0.106353
0.717967 0.011474 -0.087482
-0.623019 0.521848 -0.040403
-0.598940 -0.327473 0.103333
-0.473060 -0.242990 0.217393
-0.067215 0.397333 0.200466
0.073147 0.546816 -0.144198
0.010726 0.733747 -0.097478
-0.084211 -0.701428 -0.014190
-0.670495 0.211204 0.257879
0.399116 -0.587164 -0.067082
0.384329 0.630292 0.176013
-0.547925 -0.035146 0.190013
0.039286 -0.583814 -0.010218
-0.301675 -0.518248 -0.296301
0.815554 -0.276272 -0.070638
-0.447583 -0.269551 0.339363
-0.519678 -0.634023 -0.201622
0.520125 0.626340 0.081457
0.130138 0.568961 0.203585
0.688980 -0.263157 0.153020
0.831924 -0.360728 -0.255878
-0.545723 -0.269740 -0.209034
0.044822 0.047572 0.325175
0.282252 -0.512139 0.177392
-0.234565 -0.234767 0.101588
-0.294899 0.021433 -0.190622
-0.079874 -0.364098 -0.300456
-0.637262 -0.263750 -0.082149
-0.460349 0.381325 0.258703
0.387090 -0.513711 -0.050676
0.488543 0.508241 -0.216708
0.283743 0.746323 0.214672
0.761818 -0.128846 -0.140835
-0.624755 -0.076190 -0.158410
0.377726 -0.472616 0.170297
-0.519766 0.457593 -0.069238
0.283212 -0.218248 -0.328321
0.076233 -0.226039 0.054771
0.615293 0.330719 0.000779
-0.442517 -0.806065 -0.000503
-0.176551 -0.408059 -0.294051
-0.016512 -0.204993 0.073419
0.324886 0.313442 0.334015
-0.742622 0.104679 0.169322
-0.136443 -0.488914 -0.316307
-0.533504 -0.101289 0.174679
-0.461989 0.500346 0.282499
0.684784 -0.259298 0.120423
-0.375471 0.024498 0.386256
0.397459 0.473560 0.171161
-0.555045 0.341503 0.265618
0.821606 -0.358688 -0.365386
-0.649905 0.379681 -0.064321
0.243819 0.126841 0.098388
0.812211 -0.320043 -0.320140
0.719675 -0.041327 -0.276080
0.747518 -0.117311 -0.258298
-0.582576 0.471456 -0.056686
0.341914 0.344265 0.337451
-0.748367 0.080965 0.010432
-0.506361 -0.673885 -0.206980
-0.600924 -0.341506 0.025431
0.239278 -0.430773 -0.363491
-0.446914 -0.820282 -0.106609
-0.325155 0.061430 0.174319
0.711443 0.001503 -0.201093
-0.002126 0.684010 -0.105307
-0.326240 -0.717873 -0.331945
-0.197968 -0.262316 0.090424
-0.563304 -0.507814 -0.201306
0.254360 0.661754 -0.149770
-0.149202 -0.307927 -0.278519
-0.547071 -0.496186 0.029436
0.709883 -0.226169 -0.396529
-0.191887 0.654192 -0.081566
0.730973 -0.310697 -0.416541
0.202004 0.235670 -0.225862
-0.315890 -0.045890 0.151646
-0.381005 -0.852568 0.002274
0.375889 0.190485 -0.261958
-0.440513 -0.016205 0.388365
0.095863 -0.279675 0.041097
-0.787487 0.234404 0.169372
-0.297346 0.211001 0.199557
0.156104 -0.320508 0.023612
0.444607 -0.193518 -0.348638
-0.108329 0.421427 0.378981
0.241159 0.050587 0.083722
0.668332 0.150344 -0.105732
0.401233 -0.104133 0.028120
0.413118 -0.477053 -0.047491
-0.459760 -0.012297 0.392144
0.607957 0.284423 -0.265214
0.670165 0.164455 -0.029253
-0.596168 -0.419860 -0.229128
-0.768509 0.168871 0.127345
-0.100237 0.466814 -0.132940
-0.510934 0.527977 -0.056697
-0.456383 -0.759137 0.026452
-0.355959 -0.266073 -0.237948
0.125444 0.195095 0.341759
0.361756 -0.267568 -0.350343
0.736933 -0.035496 -0.056498
0.725729 -0.241281 -0.401993
-0.417666 -0.475822 -0.269793
-0.023553 -0.061436 -0.249393
-0.353439 0.007985 0.379549
0.839538 -0.355875 -0.150022
-0.442001 -0.118744 -0.195370
-0.595251 -0.337259 0.106793
-0.142114 -0.484419 0.037773
0.036586 -0.498623 0.057423
0.740409 -0.107364 -0.300087
-0.269145 0.269361 0.418078
0.348940 0.238219 0.103997
-0.423152 -0.316847 0.326193
-0.632385 -0.279430 -0.088370
0.039471 -0.482541 0.153665
0.175951 -0.301403 -0.328014
0.619601 -0.152046 -0.015463
-0.409198 -0.022429 -0.181445
0.710052 -0.358643 0.016825
-0.566001 -0.452115 -0.012561
-0.516170 -0.124768 0.192103
-0.164873 -0.601971 -0.334226
0.251794 0.066142 -0.267168
0.367048 0.131656 -0.272212
0.206553 0.551673 0.190121
-0.185348 -0.209543 -0.253415
0.395008 0.527529 0.154021
-0.170099 -0.039230 0.130192
-0.198489 0.321534 -0.146327
-0.207204 0.361567 0.426640
-0.335778 -0.297846 0.316304
-0.164940 -0.109107 -0.236738
0.189480 -0.230623 0.036177
0.546084 0.531886 0.005013
-0.073924 -0.333655 -0.295365
0.317712 0.658206 -0.160366
-0.299195 0.325068 0.304235
-0.687765 -0.119825 -0.090363
-0.342540 -0.597658 -0.305624
0.231674 0.337836 -0.210290
0.683957 0.080437 -0.203192
-0.252883 -0.400199 0.071731
-0.380363 0.335405 0.237128
-0.333187 -0.248355 -0.238000
0.342436 -0.331468 0.203725
0.442409 -0.526386 -0.061823
-0.092079 -0.499730 -0.325375
0.531542 0.377108 0.102946
-0.548857 0.231585 -0.109394
0.613865 -0.030033 -0.342740
0.613262 0.317330 -0.075115
0.172001 0.777314 -0.114051
0.345992 0.054378 -0.284207
0.057668 -0.008947 0.311990
0.609881 -0.037273 0.008755
0.365129 0.552275 0.163582
0.090054 -0.265262 0.044855
0.586985 -0.216807 -0.375482
-0.214673 -0.412806 0.063269
0.133185 0.195137 0.340558
0.596746 -0.392333 -0.411721
-0.372732 0.112632 0.282294
0.003994 -0.678770 -0.023486
0.072167 0.067513 0.324847
0.630217 0.244052 0.061218
-0.154789 -0.564039 -0.328299
-0.094514 0.316816 -0.163500
0.569494 -0.320603 -0.393278
-0.215673 0.036644 0.152317
-0.077916 -0.583166 -0.344089
-0.049412 -0.636137 -0.006712
-0.112815 0.367056 0.412983
0.597831 0.140722 0.045840
-0.818414 0.307691 0.105830
0.466456 0.720615 -0.158461
0.647525 0.235228 -0.008299
-0.270809 0.301308 -0.139032
-0.488952 -0.684064 -0.048764
-0.678235 0.393794 0.295200
-0.000727 -0.344569 0.043349
-0.741981 0.421383 -0.041692
-0.601224 -0.332840 0.056164
0.589431 -0.384356 -0.409001
-0.279977 0.342588 0.434252
0.636573 -0.254408 -0.390664
-0.041609 -0.573874 0.004383
0.189569 0.111922 0.315294
-0.332903 -0.543790 -0.296475
0.204212 0.418562 0.373653
-0.028354 -0.288801 -0.293611
0.279945 0.020754 0.071764
-0.489684 -0.673477 -0.015387
0.144114 0.213950 -0.221116
-0.389048 0.143503 0.218063
0.326921 0.080620 -0.276038
-0.181389 0.653663 -0.083310
0.799562 -0.262807 -0.238701
0.418729 -0.384616 0.181297
-0.078565 -0.101608 0.103559
0.096494 -0.551558 0.198609
0.551447 0.298601 0.084310
-0.273795 -0.791383 -0.002370
0.071837 0.289997 -0.194787
-0.232273 -0.510376 -0.305584
0.026927 -0.422914 -0.328770
0.184678 0.032228 0.172977
-0.356266 -0.460571 -0.276367
-0.191236 0.089764 -0.193299
-0.062636 -0.027831 -0.236643
-0.417821 -0.255191 -0.226133
-0.054495 0.469531 0.212758
-0.502228 -0.208184 0.148652
0.523040 0.438537 -0.235882
0.202512 -0.197098 -0.311533
-0.240644 0.314321 -0.141170
-0.250832 -0.239523 0.283385
-0.114948 -0.490838 -0.320045
-0.739751 0.093855 0.159369
-0.268010 -0.386976 -0.275596
0.662815 -0.147574 -0.373633
0.388452 0.139720 -0.273960
-0.817980 0.280841 0.004979
-0.463340 -0.387976 0.107019
-0.718036 0.029787 0.154299
0.710489 -0.338650 0.100586
0.192738 0.003344 0.260432
0.272598 0.219153 -0.240155
0.685378 -0.384830 0.139607
0.046088 0.606375 -0.128192
0.537624 0.311830 -0.263219
-0.009522 -0.553777 -0.348959
-0.200996 -0.007602 0.141274
0.788744 -0.240486 -0.059373
-0.070005 -0.250542 -0.279539
0.353436 -0.523715 -0.399703
0.224235 0.133761 0.135239
0.328995 0.145659 -0.263499
0.144832 -0.090481 0.250212
0.524703 0.542850 -0.195364
-0.057629 -0.577341 -0.346105
-0.246905 -0.245765 0.303522
-0.349271 -0.119474 0.353690
0.734382 -0.452627 -0.092838
-0.660834 -0.168676 0.023938
-0.638938 -0.216639 0.084397
0.599185 -0.330248 -0.399823
-0.442906 0.326409 0.325222
-0.600148 0.169360 0.394383
0.448408 0.363925 0.113323
0.320325 0.731975 0.206121
0.394963 -0.411599 -0.384015
0.540456 0.540430 0.133855
-0.483747 0.138070 -0.138058
-0.427741 0.258375 0.229904
0.260771 -0.540691 -0.036283
-0.476566 -0.542713 -0.273823
0.227608 0.077106 -0.261221
-0.410508 0.478616 0.270160
0.391806 -0.046374 -0.311289
0.106533 -0.572351 -0.018454
-0.166655 0.272350 -0.161027
0.309751 -0.355827 0.204012
-0.514472 -0.457261 -0.251002
-0.493323 -0.164599 0.295433
-0.232627 -0.311952 0.086020
-0.432351 0.300041 0.341569
0.294383 -0.082491 -0.303216
-0.596253 0.186188 0.452719
-0.512325 -0.135039 0.195438
0.627246 0.195842 -0.300157
-0.548100 0.010782 0.362470
0.522833 0.596304 -0.006033
0.375304 0.108692 -0.278043
-0.512532 -0.598198 0.020952
0.403868 -0.562151 -0.062877
0.501921 0.679308 0.082797
0.809155 -0.319438 -0.352564
-0.563074 0.381161 -0.077590
-0.475480 -0.227775 0.249771
-0.777117 0.285878 -0.063004
0.029317 -0.618242 -0.015470
0.502570 -0.186438 -0.003986
0.297705 0.353593 0.346201
0.622935 0.136495 0.041083
-0.342414 0.001400 0.189392
0.477259 -0.313858 0.186150
-0.405126 0.131751 -0.151588
0.700743 -0.355593 -0.420698
-0.353093 0.237804 0.213565
-0.458399 -0.390717 -0.246600
-0.525672 -0.180887 0.157713
-0.593138 0.119690 0.278525
0.071161 -0.262875 0.048278
-0.479738 -0.687857 0.041258
-0.461155 -0.812935 -0.239890
-0.108320 0.359333 -0.152935
0.724657 -0.291421 -0.059437
0.452614 0.770021 -0.121477
0.417359 0.875543 -0.107308
-0.554140 -0.494635 -0.044981
0.444868 0.840519 0.068062
-0.337038 0.538703 0.270569
-0.091479 -0.253871 0.075462
-0.067244 0.224119 -0.186093
0.638821 -0.250144 0.173517
0.580149 0.347960 0.089589
-0.543622 -0.557385 -0.172415
0.781663 -0.288052 -0.419979
0.435762 0.798220 -0.151113
0.340429 -0.426774 -0.378499
-0.533411 -0.584702 -0.163725
0.117166 0.564671 -0.147542
-0.592455 -0.170721 -0.182151
-0.046255 -0.563471 -0.345139
-0.077649 -0.350192 0.054251
-0.837962 0.367659 0.119430
-0.316697 0.406334 -0.111093
-0.155221 -0.102312 -0.236913
0.117979 0.763573 -0.108331
-0.337830 0.103603 -0.167666
0.229065 -0.448095 -0.365322
-0.094129 0.628449 0.250379
-0.272204 0.469561 0.246768
0.754205 -0.115453 -0.029249
0.026994 0.356006 -0.174728
0.028809 0.199635 0.159735
0.727029 -0.039371 -0.184589
-0.623394 -0.324284 -0.162679
-0.697473 -0.052652 0.063725
0.768519 -0.190063 -0.305709
0.460052 0.753995 -0.099894
0.526346 0.463279 0.120800
-0.171960 0.441718 -0.126701
0.126950 0.619085 -0.138308
-0.528983 -0.561459 -0.021691
-0.537302 -0.521119 0.042487
-0.007988 -0.635753 -0.013107
-0.072688 -0.322794 0.058895
0.588039 0.420703 0.044870
0.072406 0.478841 -0.157526
-0.365392 0.112409 0.365039
-0.760770 0.174209 0.236551
0.208659 0.709151 0.219048
0.230126 -0.017609 -0.280347
0.075554 0.059331 -0.240988
-0.210312 -0.448183 0.055591
0.366300 0.657002 -0.168193
0.054602 0.326093 -0.184956
0.177693 -0.554173 0.185410
0.584370 0.424282 0.017165
-0.568211 -0.086790 0.182967
-0.070318 0.667029 -0.098015
0.498185 0.669056 -0.000168
0.139125 -0.652774 -0.039450
-0.815517 0.256709 -0.062058
-0.491946 -0.578979 0.073711
0.094871 0.548709 0.205088
-0.501896 -0.677402 -0.169970
-0.336592 0.337381 -0.121623
-0.851179 0.406423 0.121604
-0.627147 -0.063605 -0.155547
-0.649029 0.073382 -0.125037
0.468961 0.622164 0.161187
0.058607 -0.427147 -0.334555
0.655537 0.192446 -0.085596
-0.202195 0.471068 -0.116174
-0.234266 -0.400673 -0.283576
0.161565 -0.574060 0.183996
-0.087641 0.496139 0.223197
0.327238 -0.604612 -0.059306
-0.196444 -0.062755 -0.222650
-0.457296 0.472558 -0.076035
0.747035 -0.233969 -0.051569
-0.642688 0.095668 -0.121619
0.041399 0.391257 0.182299
0.193837 0.621126 -0.148352
0.650796 0.008297 0.011377
-0.236799 -0.197872 0.109234
0.323020 0.519708 -0.188587
0.520327 -0.346138 -0.390649
-0.582332 0.181917 0.449700
-0.362879 -0.167280 -0.217328
0.448743 -0.519826 -0.061515
-0.083606 0.445525 -0.139748
-0.332603 -0.028709 0.182521
-0.175196 0.516963 0.240991
-0.534871 0.159606 0.437874
-0.482099 0.442159 -0.078173
-0.346888 0.010755 -0.184614
-0.663348 0.370115 0.288192
0.069396 -0.679497 -0.033845
-0.532708 -0.556624 -0.045081
-0.647535 -0.020178 -0.143774
0.340518 0.076745 0.073377
-0.429668 -0.861756 -0.073571
-0.170145 -0.418502 -0.297117
-0.402607 -0.743460 0.027227
-0.305688 -0.097436 0.218329
0.306434 -0.512330 -0.037805
0.720977 -0.162793 -0.385727
-0.204739 -0.032033 -0.215279
-0.146030 0.320921 0.409046
0.297045 0.228612 0.110203
0.002156 0.410540 -0.160062
-0.315772 0.377723 0.322872
-0.321483 -0.163118 -0.222970
-0.626327 0.237059 0.362911
0.330675 0.770847 0.212192
-0.640152 -0.239962 -0.188395
0.219715 0.406077 0.368762
0.285179 0.305675 0.338680
0.203586 0.141797 -0.244675
-0.638349 0.435467 -0.055092
0.752685 -0.155632 -0.350428
0.006031 -0.190445 0.072776
0.080224 0.145978 -0.224580
-0.703194 0.399143 -0.052148
-0.572476 0.418278 0.283524
0.546063 0.481726 -0.192871
-0.472309 -0.796707 -0.303021
-0.209288 0.252349 0.405364
-0.699779 -0.037589 0.096800
0.674517 -0.083869 -0.362861
-0.218695 0.297486 -0.147927
0.802843 -0.234416 -0.089457
-0.621496 0.204639 0.290205
-0.326382 0.581007 -0.075034
-0.301088 0.351572 0.387108
0.059357 -0.102008 -0.270367
-0.213189 0.504367 0.244434
0.824401 -0.312668 -0.152215
-0.659703 0.110979 0.236371
-0.550801 -0.094234 -0.173530
-0.166025 -0.058122 -0.226485
-0.804994 0.252627 0.041734
-0.109092 -0.090762 0.110472
0.487146 -0.051430 0.025125
-0.620618 0.213746 0.336093
-0.178167 -0.374941 -0.287249
0.670709 0.110460 -0.235814
0.374911 -0.473373 0.170587
0.563542 0.329404 0.088513
0.687487 -0.074681 -0.010765
0.234769 0.229773 0.331542
0.473237 0.754249 0.051318
-0.034538 0.080976 0.135846
0.004444 -0.230835 -0.287269
-0.271742 0.261584 -0.146743
-0.380369 0.287574 0.227669
0.825841 -0.378831 -0.396505
-0.624145 -0.321831 -0.161576
-0.181745 0.096227 -0.193503
0.748499 -0.093154 -0.151935
0.576618 0.462467 0.079321
0.501678 -0.436150 -0.405539
-0.457919 0.492134 -0.072066
0.273451 -0.221959 0.024775
-0.472562 -0.783482 -0.253790
0.087039 -0.076456 0.294051
-0.319321 -0.617915 0.039048
0.745743 -0.325835 -0.069536
-0.234390 -0.593504 -0.321694
0.354594 0.305676 0.323104
-0.380814 -0.469889 -0.274376
0.209443 -0.425619 -0.357812
-0.646417 -0.009145 -0.141767
-0.192129 -0.073364 0.126883
0.054778 -0.561129 0.018374
-0.280004 0.256404 0.252299
0.403503 0.469455 0.203043
-0.467391 0.305879 0.456264
0.500476 0.198829 0.072538
0.121815 -0.131634 0.237765
-0.378146 -0.829179 0.006453
-0.150540 0.527602 -0.113061
-0.459978 -0.162468 0.362478
0.398893 0.654442 -0.173790
-0.137030 -0.780436 -0.021567
0.272999 -0.346238 0.211649
-0.289570 -0.123605 0.298829
0.500338 -0.414594 -0.401066
-0.764959 0.396895 -0.042946
-0.544853 -0.526746 -0.065704
0.687753 -0.307839 -0.037018
0.779138 -0.229293 -0.339317
0.367232 -0.425187 0.181317
0.571026 0.301244 0.081775
-0.638779 -0.197418 0.161942
-0.107573 -0.255949 -0.274741
0.640210 -0.299325 0.163573
-0.774689 0.295557 -0.061468
-0.031383 -0.308782 0.055215
0.638915 0.230929 -0.123322
-0.057194 -0.100906 0.100360
0.703912 0.016944 -0.226046
-0.518310 -0.285498 -0.216432
0.476841 0.660118 -0.184842
-0.115711 0.159663 -0.191271
-0.550365 -0.493210 -0.252506
0.041384 0.224794 0.161402
-0.520595 -0.602043 -0.086056
-0.460051 -0.357714 -0.239814
-0.023564 -0.177834 -0.272412
-0.438170 -0.829813 -0.044552
-0.625439 0.081230 -0.127169
-0.415131 -0.787190 0.020534
0.594873 -0.409310 -0.062482
0.525690 0.569966 0.142003
0.293175 -0.595359 -0.052156
0.223593 -0.217046 0.033534
0.221357 0.101698 -0.255381
0.732215 -0.100180 -0.022794
